0.546200,0.546100,0.546100,0.546000,0.544500,0.544500,0.544500,0.544600,0.544600,0.541700,0.541600,0.541600,1.000000,1.000000,1.000000,1.000000,1.000000,1.000000,1.000000,1.000000,1.000000,0.539200,0.539300,0.539400,0.540400,0.541300,0.541200,0.541000,0.541000,0.539600,0.538100,0.538100,0.537800,0.537200,0.537400,1.000000,0.537500,0.536500,0.536400,1.000000,1.000000,1.000000,1.000000,1.000000,1.000000,1.000000,1.000000,0.530900,0.530900,0.534400,0.534400,0.534100,1.000000,1.000000,1.000000,1.000000,0.532300,1.000000,1.000000,1.000000,1.000000,1.000000,0.530900,0.530900,0.529400,0.529400,0.527900,0.527700,0.527500,0.527500,0.527300,0.527100,0.527000,0.526900,0.524400,1.000000,1.000000,0.524400,0.524400,0.526900,0.527200,0.527200,0.527100,0.527100,0.528700,0.528600,0.527600,0.528100,0.525100,0.525100,0.522900,0.522900,0.522800,0.522600,0.522400,1.000000,0.521500,0.521400,0.521300,0.520600,0.520400,0.520000,0.518800,0.518700,0.518600,0.518500,0.518400,0.518300,0.518200,0.517300,0.517300,0.517300,0.517300,0.517300,0.517300,0.517300,0.517300,0.516300,0.516300,0.516200,0.516100,0.516000,0.515900,0.515800,0.515800,0.515600,0.515600,1.000000,1.000000,0.473100,0.472900,0.472800,0.472800,0.476100,0.478700,1.000000,1.000000,1.000000,1.000000,1.000000,1.000000,1.000000,1.000000,1.000000,1.000000,1.000000,1.000000,1.000000,1.000000,1.000000,1.000000,0.468400,0.468400,0.468300,0.467500,0.467400,0.466200,0.465600,0.465600,0.465700,0.465800,0.466000,0.466100,1.000000,1.000000,1.000000,0.503100,1.000000,1.000000,1.000000,1.000000,1.000000,1.000000,1.000000,0.493700,0.498800,1.000000,1.000000,1.000000,0.501300,1.000000,0.461700,0.461400,0.461400,0.461200,0.461200,0.460400,0.460300,0.460200,0.460100,0.460100,0.460100,1.000000,1.000000,1.000000,1.000000,0.496900,1.000000,1.000000,1.000000,1.000000,1.000000,0.492100,0.492100,1.000000,0.490800,0.490900,0.490600,1.000000,1.000000,1.000000,1.000000,0.454600,0.454600,0.454500,0.453700,0.452200,0.451700,0.451400,0.451300,0.451200,1.000000,1.000000,1.000000,1.000000,1.000000,1.000000,1.000000,0.488500,0.488400,0.488300,1.000000,1.000000,1.000000,1.000000,1.000000,1.000000,1.000000,1.000000,1.000000,1.000000,1.000000,1.000000,1.000000,0.411400,0.411400,0.411400,1.000000,1.000000,1.000000,1.000000,1.000000,0.484400,0.484300,0.483200,0.480800
0.547400,0.547400,1.000000,0.546000,0.544600,0.544700,0.544700,0.544700,0.544600,0.544500,0.544400,0.544400,1.000000,1.000000,1.000000,1.000000,1.000000,1.000000,1.000000,1.000000,1.000000,0.539400,0.539400,0.540400,1.000000,0.542600,0.541200,0.541200,0.541000,0.539700,0.539600,0.538600,0.537800,0.537700,0.537600,0.537600,0.537600,0.536500,0.536500,0.535800,0.535600,1.000000,1.000000,1.000000,1.000000,1.000000,1.000000,1.000000,0.530900,0.534200,0.534200,0.534200,1.000000,1.000000,1.000000,1.000000,0.531700,1.000000,1.000000,1.000000,1.000000,1.000000,0.533200,0.530900,0.529500,0.528000,1.000000,1.000000,0.527500,0.527600,0.527600,1.000000,0.527800,0.527400,0.524500,0.524500,0.524500,0.524500,0.524500,0.530700,0.530700,0.528900,0.527100,0.527100,0.528600,0.529500,0.529400,0.528300,0.525100,0.525200,0.525100,0.525000,0.524800,0.524600,0.522700,0.522400,0.521500,0.521400,0.521400,0.523100,0.523100,0.522800,0.522400,0.520100,0.518600,0.518500,0.518400,0.518400,0.519700,0.518500,0.517300,0.517300,0.517300,0.516900,0.516300,0.516200,0.516200,0.514800,0.514800,0.514700,0.514600,0.516000,0.515900,0.515900,0.515800,0.515600,0.514200,1.000000,1.000000,0.473300,0.472800,0.472800,0.472800,0.474300,0.476100,1.000000,1.000000,1.000000,1.000000,1.000000,1.000000,1.000000,1.000000,1.000000,1.000000,1.000000,1.000000,1.000000,1.000000,1.000000,1.000000,1.000000,0.468600,0.468600,0.467600,0.467500,0.467400,0.465600,0.465600,0.465600,0.465700,0.465800,0.463800,1.000000,1.000000,1.000000,1.000000,1.000000,1.000000,0.503000,0.501900,0.501900,0.501300,0.499100,0.499000,0.498900,0.501900,0.501900,0.501400,1.000000,1.000000,0.462300,0.461600,0.461400,0.461200,0.461100,0.460600,0.460500,0.460300,0.460200,0.460200,0.460100,1.000000,1.000000,1.000000,1.000000,0.496900,0.496900,1.000000,1.000000,1.000000,1.000000,1.000000,1.000000,0.493600,0.492200,1.000000,1.000000,1.000000,1.000000,0.494000,1.000000,0.454700,0.454700,0.454000,0.453600,0.451800,0.451700,0.451500,0.451300,0.451200,0.451000,1.000000,1.000000,1.000000,1.000000,1.000000,1.000000,0.488400,1.000000,1.000000,0.488200,1.000000,1.000000,1.000000,1.000000,1.000000,0.490300,1.000000,1.000000,1.000000,1.000000,1.000000,1.000000,1.000000,0.412600,1.000000,1.000000,1.000000,1.000000,0.446200,0.446200,1.000000,0.484400,0.483100,0.480800
0.547300,0.547200,0.547200,0.546100,0.544700,0.544700,0.544700,0.544700,0.544600,0.544500,0.544400,0.544400,1.000000,1.000000,0.542200,0.543800,0.543900,0.541200,0.541200,0.541200,0.541000,0.539600,0.540400,0.540400,0.541400,0.542600,0.541300,1.000000,0.539300,0.539300,0.538900,0.538800,0.537700,0.537700,0.537600,0.536700,0.536600,0.536500,0.536500,0.536500,0.537600,0.537600,1.000000,1.000000,1.000000,1.000000,1.000000,1.000000,1.000000,0.534100,0.534100,1.000000,1.000000,1.000000,0.531800,0.531700,0.531700,0.531700,1.000000,1.000000,1.000000,1.000000,0.533200,0.532500,0.530000,0.529900,1.000000,1.000000,0.528200,0.528200,0.528600,0.529100,0.529000,0.529000,0.524500,0.524500,0.524500,0.524500,0.524500,0.530600,0.530600,0.527800,0.527100,0.527100,0.528400,0.528400,0.528400,0.527200,0.525200,0.525300,0.525700,0.525800,0.525800,0.524600,0.524600,0.522600,0.521500,0.521400,0.523000,0.523100,0.523000,0.523000,0.522900,0.520400,0.520300,0.520300,0.520100,0.519900,0.519800,0.519500,0.519400,0.518600,0.517500,0.516300,0.516200,0.516200,0.516100,0.514800,1.000000,1.000000,1.000000,0.513100,0.515900,0.515900,0.515800,0.515800,0.513700,1.000000,1.000000,1.000000,0.472700,0.472700,0.472800,0.474300,0.474300,1.000000,1.000000,1.000000,1.000000,1.000000,1.000000,1.000000,1.000000,1.000000,1.000000,0.494200,0.494800,1.000000,1.000000,1.000000,1.000000,1.000000,0.468700,0.468600,0.468400,0.467600,0.467400,0.466700,0.465600,0.464600,0.463800,0.463800,1.000000,1.000000,1.000000,0.509600,0.504600,0.504600,0.504500,0.503000,0.502900,0.502000,1.000000,0.499900,0.500000,0.501900,0.501900,0.501800,0.499800,0.499700,1.000000,1.000000,0.462400,0.462200,0.461200,0.461000,0.460700,0.460600,0.460500,0.460300,0.460200,0.460100,1.000000,1.000000,0.497900,0.498000,0.498000,0.498000,1.000000,1.000000,1.000000,1.000000,1.000000,1.000000,1.000000,0.493700,0.493800,1.000000,1.000000,0.493900,0.493900,1.000000,0.454300,0.453800,0.453600,0.452200,0.451900,0.451700,0.451500,0.451400,0.450400,0.450400,1.000000,1.000000,1.000000,1.000000,1.000000,1.000000,1.000000,0.488300,1.000000,0.488100,0.488000,0.490600,0.490600,0.490500,0.489700,0.489800,0.490100,0.490100,1.000000,1.000000,1.000000,1.000000,1.000000,1.000000,1.000000,1.000000,1.000000,1.000000,1.000000,1.000000,1.000000,0.484500,0.483100,0.481200
0.547200,0.547100,0.547000,0.546200,0.544800,0.544800,0.544800,0.544700,0.544600,0.544500,0.544400,0.544400,1.000000,1.000000,0.541800,1.000000,0.543900,0.543800,0.543800,1.000000,0.541300,0.540500,0.540500,0.540400,0.540400,0.540800,1.000000,1.000000,0.540000,0.539400,0.538900,0.538800,0.537600,0.537600,0.537600,0.536700,0.536700,0.536600,0.536600,0.537700,0.539000,0.539100,0.537700,1.000000,1.000000,1.000000,1.000000,1.000000,1.000000,1.000000,1.000000,0.533600,1.000000,1.000000,1.000000,0.531700,1.000000,1.000000,1.000000,1.000000,1.000000,1.000000,0.533200,0.533000,0.530000,0.530000,1.000000,1.000000,0.528800,0.529000,0.529000,0.530500,0.530600,0.529000,0.529000,0.530800,0.524600,0.524500,0.525600,0.530600,0.528900,0.527200,0.527100,0.527100,0.528400,0.528400,0.527100,0.525200,0.525200,0.525200,0.525700,0.525800,0.525800,0.525700,0.524700,0.521400,0.521500,0.521500,0.523000,0.523000,0.523000,0.523000,0.522900,0.520700,0.520400,0.520400,0.520000,0.519900,0.519700,0.519600,0.519500,0.519300,0.518700,0.516300,0.516300,0.516200,0.516200,1.000000,1.000000,1.000000,1.000000,1.000000,1.000000,1.000000,1.000000,1.000000,1.000000,0.513700,1.000000,1.000000,0.472600,0.472300,0.472100,0.472800,1.000000,1.000000,1.000000,1.000000,1.000000,1.000000,1.000000,0.497600,1.000000,1.000000,1.000000,0.494200,0.494300,1.000000,1.000000,1.000000,1.000000,1.000000,0.468700,0.468600,0.468500,0.467700,0.466700,0.465800,0.465700,0.464600,0.463800,0.463800,0.463800,1.000000,0.509600,0.506100,0.504600,0.504600,0.504500,0.503200,0.503000,0.502200,0.501900,0.501700,1.000000,1.000000,0.501800,1.000000,0.499700,0.498200,1.000000,0.462500,0.462400,0.462300,0.461100,0.460900,0.460700,0.460600,0.460500,0.460300,0.460200,1.000000,1.000000,1.000000,0.497900,0.498000,0.498000,1.000000,0.498200,1.000000,1.000000,1.000000,1.000000,1.000000,1.000000,1.000000,0.493800,1.000000,0.493900,0.493900,0.493900,1.000000,0.453800,0.453800,0.453400,0.452200,0.452000,0.451800,0.451500,0.451400,0.450400,0.450400,1.000000,1.000000,1.000000,1.000000,1.000000,1.000000,1.000000,1.000000,1.000000,1.000000,0.490600,0.490600,0.490500,0.489700,0.489800,0.489800,0.490000,1.000000,1.000000,1.000000,1.000000,1.000000,1.000000,1.000000,1.000000,1.000000,1.000000,0.446200,0.447300,0.447300,1.000000,1.000000,0.481400,1.000000
0.547100,0.547000,0.546800,0.546400,1.000000,0.545000,0.544900,0.544800,0.544700,0.544500,0.544500,0.544400,1.000000,0.540600,0.541000,0.542300,0.543800,1.000000,1.000000,1.000000,1.000000,0.543400,1.000000,1.000000,0.539700,0.540400,0.540400,0.540600,0.541200,0.541100,0.539000,0.539000,0.537700,0.537700,0.537600,0.536700,0.536700,0.536600,0.536600,0.539000,0.539100,0.539100,0.539200,1.000000,1.000000,1.000000,1.000000,1.000000,0.535000,0.535000,0.533800,0.533400,0.533100,0.531800,0.531700,0.531700,0.531700,1.000000,0.533000,1.000000,1.000000,1.000000,1.000000,1.000000,0.530100,0.530100,1.000000,1.000000,0.529100,0.529100,0.530500,0.532400,0.532400,0.533100,0.531900,0.530800,1.000000,1.000000,0.530600,0.530600,0.527200,0.527200,0.527100,0.527000,0.527000,0.528400,0.527100,0.525200,0.524100,0.524200,0.525000,0.525800,1.000000,0.524700,0.522200,0.521500,0.521500,0.521500,0.523000,0.523000,0.523000,0.523000,0.521800,0.521800,0.520700,0.520700,0.520200,0.519700,0.519700,0.519600,0.519500,0.519400,0.519300,0.518100,0.516200,0.516200,0.516200,0.516200,0.516400,1.000000,1.000000,1.000000,1.000000,1.000000,1.000000,0.513700,0.513600,0.513600,1.000000,1.000000,0.472500,0.472000,0.472000,0.472000,1.000000,1.000000,1.000000,1.000000,1.000000,0.500600,0.500600,0.497600,1.000000,1.000000,1.000000,1.000000,0.494200,1.000000,1.000000,1.000000,1.000000,1.000000,0.468600,0.468600,0.468400,0.466700,0.466700,0.465900,0.465900,0.465900,0.464600,0.464600,1.000000,0.509000,0.509400,0.506100,0.504500,0.504500,0.503700,0.503400,0.503100,0.502800,0.502100,0.501800,1.000000,0.501800,1.000000,0.498200,0.498200,1.000000,1.000000,0.462500,0.462400,0.462200,0.461000,0.460800,0.460700,0.460600,0.460500,0.460200,0.460100,0.460000,1.000000,0.497900,0.498000,0.498000,0.498000,0.498000,1.000000,1.000000,1.000000,1.000000,1.000000,1.000000,1.000000,1.000000,0.493800,0.493800,0.493800,0.493800,0.493800,1.000000,0.453500,0.453400,0.453300,0.452800,0.452600,0.452500,0.451600,0.451500,0.450400,0.450400,1.000000,1.000000,1.000000,1.000000,1.000000,1.000000,1.000000,1.000000,1.000000,1.000000,1.000000,0.490600,0.490500,0.489700,0.489800,0.489900,0.490000,0.490100,1.000000,1.000000,0.444800,0.444800,1.000000,0.414400,0.414400,1.000000,1.000000,0.447300,0.447300,1.000000,1.000000,1.000000,1.000000,1.000000
0.547100,0.546900,0.546800,0.546700,1.000000,0.545100,0.545000,0.544800,0.544800,0.544600,0.544500,0.543200,0.540400,0.540400,0.540400,0.542200,0.543300,1.000000,1.000000,1.000000,1.000000,1.000000,1.000000,1.000000,1.000000,0.540200,0.540400,0.541400,0.541400,0.541400,0.540000,0.539800,0.539100,0.538200,0.537800,0.537800,0.537800,0.538400,0.539000,0.539000,0.539000,0.539100,0.539200,0.539300,1.000000,1.000000,1.000000,0.536000,0.535500,0.534900,0.533800,0.533700,0.533200,0.533100,0.533100,0.533100,0.533100,0.533100,1.000000,1.000000,1.000000,1.000000,0.536100,1.000000,0.530100,0.530100,1.000000,0.529100,0.529100,0.529100,0.531800,0.532400,0.532500,0.533100,0.533200,0.530800,0.527600,1.000000,0.530300,0.528700,0.527100,0.526800,0.525100,0.525000,0.526100,0.525300,0.524100,0.524100,0.524100,0.524100,0.524200,0.524200,0.524300,0.522100,0.522000,1.000000,0.521700,0.521700,0.521800,0.523000,0.523000,0.521900,0.521800,0.521800,0.521700,0.521600,0.521100,0.519700,0.519700,0.519600,0.519600,0.519600,0.519600,0.519600,0.518000,0.517900,0.518000,0.516700,0.516700,0.516800,0.515100,1.000000,1.000000,1.000000,1.000000,0.513700,0.513600,0.513600,1.000000,1.000000,0.473500,0.473200,0.473500,0.471900,1.000000,1.000000,1.000000,0.494300,0.494300,0.500600,0.500600,0.497600,1.000000,1.000000,1.000000,1.000000,1.000000,0.487800,1.000000,0.504200,0.504200,1.000000,0.468600,0.468200,0.466800,0.466800,0.466700,0.466000,0.466000,0.466000,0.466000,0.466000,1.000000,0.509000,0.509300,0.509300,0.504500,0.504400,0.503800,0.503700,0.503500,0.503400,0.502900,0.502600,1.000000,1.000000,1.000000,1.000000,1.000000,1.000000,1.000000,1.000000,0.462400,0.462200,0.461900,0.461800,0.460700,0.460600,0.460600,0.460100,0.460100,0.460000,1.000000,0.498000,0.498000,0.497900,0.497900,0.497800,0.496400,0.496400,0.498500,1.000000,1.000000,1.000000,1.000000,0.497100,0.497400,0.493800,0.493800,0.493800,0.493800,1.000000,0.453600,0.453500,0.453300,0.453000,0.452800,0.452600,0.452500,0.451600,0.451500,0.448700,0.448700,1.000000,1.000000,1.000000,1.000000,1.000000,1.000000,1.000000,1.000000,1.000000,1.000000,1.000000,0.490700,1.000000,1.000000,0.490100,0.490100,0.490100,1.000000,1.000000,0.444800,1.000000,0.414400,0.414400,0.414400,1.000000,1.000000,1.000000,1.000000,1.000000,1.000000,1.000000,1.000000,1.000000
0.549400,0.549100,0.548400,0.548300,0.548200,1.000000,0.545300,0.545000,0.544900,0.544700,0.544500,0.543100,0.540400,1.000000,0.540400,0.541900,0.543200,0.543300,1.000000,0.541800,1.000000,0.542000,0.543500,1.000000,0.539600,0.540400,0.540500,0.541400,0.541400,0.541400,0.540000,0.539600,0.539000,0.538500,0.538000,0.537900,0.538200,0.539100,0.539100,0.539000,0.538800,0.539100,0.539200,0.541100,1.000000,1.000000,0.536700,0.536600,0.535700,0.535500,0.534800,0.533400,0.533300,0.533200,0.533200,1.000000,0.533100,0.533100,1.000000,1.000000,1.000000,1.000000,1.000000,1.000000,0.530200,1.000000,0.529000,0.528800,0.529000,0.530500,0.531900,0.532500,0.532600,0.533100,0.533100,0.533200,1.000000,0.527500,0.528800,0.528700,0.526900,0.525100,0.525100,0.525000,0.524900,0.524400,0.524100,0.524000,0.524000,0.524000,0.524200,0.524200,0.523300,0.522100,0.522000,0.521800,0.521700,0.521800,0.521900,0.522000,0.521900,0.521800,0.520800,0.520700,0.520400,0.520200,0.519800,0.519700,0.519700,0.519600,0.519700,0.519700,0.519700,0.519600,0.519200,0.518800,0.518500,0.516900,0.516900,0.516900,0.517000,0.517000,0.517000,0.516900,0.516800,0.515800,0.515700,0.513600,1.000000,1.000000,0.473500,0.473600,0.473600,1.000000,1.000000,1.000000,0.494200,0.494200,0.494200,0.494300,1.000000,1.000000,1.000000,1.000000,1.000000,1.000000,1.000000,0.487800,1.000000,0.504200,0.506900,1.000000,0.468100,0.466900,0.466900,0.466900,0.466900,0.466000,0.466000,0.466000,0.466100,1.000000,1.000000,0.507700,0.509000,0.507700,0.506700,0.504400,0.504000,0.503900,0.503800,0.503800,0.503100,0.502800,0.502400,0.501800,0.500100,0.500200,1.000000,1.000000,1.000000,1.000000,0.462400,0.461900,0.461700,0.461600,0.460800,0.460700,0.460300,0.460100,0.460100,0.460100,1.000000,1.000000,0.498400,0.497900,0.497800,0.496300,0.495800,0.495500,1.000000,1.000000,0.497200,0.497200,0.497400,0.497600,0.497600,0.496500,0.496400,0.496400,0.496300,1.000000,1.000000,0.454600,0.454500,0.453600,0.453400,0.452700,1.000000,1.000000,0.451500,0.448600,1.000000,1.000000,1.000000,1.000000,1.000000,1.000000,1.000000,1.000000,1.000000,1.000000,1.000000,0.493500,0.492800,1.000000,1.000000,0.490100,1.000000,0.490100,1.000000,1.000000,1.000000,1.000000,1.000000,0.414300,1.000000,1.000000,1.000000,1.000000,1.000000,1.000000,1.000000,1.000000,1.000000,1.000000
0.549500,0.549400,0.548400,0.548300,0.548200,0.547000,0.545600,0.545100,1.000000,0.544600,0.544400,0.543100,0.540400,0.540400,0.540400,1.000000,0.541900,0.543200,1.000000,0.541600,0.541800,1.000000,1.000000,1.000000,1.000000,0.541000,0.541300,1.000000,0.541600,0.541600,0.540000,0.539400,0.539100,0.538900,1.000000,0.538100,1.000000,0.539200,0.539200,0.538600,0.538300,0.538500,0.541100,0.541100,1.000000,1.000000,0.536700,0.536600,0.536300,0.535600,0.535500,0.535400,1.000000,1.000000,1.000000,0.533300,0.533200,0.533200,1.000000,1.000000,1.000000,0.534700,0.533300,0.533500,0.531500,0.528300,0.528300,0.528200,0.528200,0.528100,0.530500,0.530600,0.530600,0.532700,0.533000,0.526800,0.527500,0.527100,0.527500,0.527500,0.526800,0.525100,0.525000,0.525000,0.524800,0.524500,0.524000,0.523900,0.523900,0.524000,0.524800,0.524700,0.524600,0.523300,0.523200,1.000000,1.000000,1.000000,0.522100,0.522000,0.521900,0.521800,0.520800,0.520700,0.520400,0.520200,0.519800,0.519800,0.519700,0.519600,0.519700,0.519700,0.519700,0.519700,0.519500,0.519400,1.000000,0.518600,0.518500,0.517100,0.517000,0.517000,0.517000,0.517000,0.516900,0.516600,0.516600,0.515800,1.000000,1.000000,0.473600,0.473600,0.473600,1.000000,1.000000,1.000000,1.000000,1.000000,0.492500,0.492500,1.000000,1.000000,1.000000,1.000000,1.000000,1.000000,1.000000,1.000000,0.499700,0.504400,0.508500,0.508500,0.466900,0.466900,0.466900,0.466900,0.466900,0.466000,0.466000,0.466100,0.466100,1.000000,1.000000,0.507700,0.507700,0.507700,0.506800,0.505900,0.504200,0.504100,0.504000,0.504000,0.503900,0.502800,0.502800,0.501700,1.000000,0.500200,0.500200,1.000000,1.000000,1.000000,1.000000,0.461600,0.461600,0.461400,0.461100,0.460500,0.460200,0.460100,0.460100,0.460100,1.000000,1.000000,0.498700,0.498700,0.496600,0.495900,0.494700,0.494600,1.000000,1.000000,1.000000,0.497600,0.497700,0.497600,0.497700,1.000000,0.496400,0.496300,0.496300,1.000000,1.000000,0.454600,0.454600,0.454400,1.000000,0.453300,1.000000,1.000000,1.000000,1.000000,1.000000,1.000000,1.000000,1.000000,1.000000,1.000000,1.000000,1.000000,1.000000,1.000000,1.000000,1.000000,1.000000,1.000000,1.000000,1.000000,1.000000,1.000000,1.000000,1.000000,1.000000,1.000000,1.000000,1.000000,1.000000,1.000000,1.000000,1.000000,1.000000,1.000000,1.000000,1.000000,1.000000,1.000000
0.549500,0.549500,0.548300,0.548200,1.000000,1.000000,0.547100,0.545200,1.000000,0.544600,0.544400,0.544300,0.541400,0.541500,0.541900,1.000000,1.000000,1.000000,1.000000,0.541900,1.000000,1.000000,1.000000,1.000000,0.541900,1.000000,1.000000,0.541600,0.541800,0.541800,0.540100,1.000000,0.539100,0.539000,0.538900,1.000000,0.539200,1.000000,0.539100,0.538200,0.537300,0.537400,0.538500,1.000000,1.000000,1.000000,0.536700,0.536500,0.536300,0.535500,0.535400,0.535400,1.000000,1.000000,1.000000,0.533600,0.533600,0.533700,1.000000,1.000000,1.000000,0.534700,0.534600,0.533500,0.531700,0.528300,0.528200,0.528100,0.528100,0.527600,0.527300,0.527200,0.528300,0.532700,1.000000,0.526800,0.524200,0.527100,0.527500,0.527500,0.527500,0.526700,0.525000,0.524900,0.524800,0.524500,0.524300,0.523900,0.523900,0.523900,0.524800,0.524800,0.524700,0.523400,0.523300,1.000000,1.000000,1.000000,0.522500,0.522700,0.522900,0.521800,0.520800,0.520700,0.520400,0.520200,0.519900,0.519800,0.519700,0.519500,0.519700,0.519700,0.519700,0.519700,0.519500,1.000000,1.000000,0.518600,0.518500,0.517100,0.517100,0.517100,0.517000,0.517000,0.516900,0.516600,0.516600,0.516300,1.000000,1.000000,0.473600,0.473600,0.473700,1.000000,1.000000,1.000000,1.000000,1.000000,0.492500,0.492500,1.000000,1.000000,1.000000,1.000000,1.000000,1.000000,1.000000,1.000000,1.000000,0.506000,0.508600,0.508500,0.467000,0.466900,0.466900,0.466900,0.467000,0.466100,0.466100,0.466200,0.466200,1.000000,1.000000,0.507700,0.507700,0.507700,0.506000,0.505900,0.504300,0.504200,0.504000,0.504000,0.503100,0.502900,0.502800,0.500400,1.000000,1.000000,0.500600,1.000000,1.000000,1.000000,0.461600,0.461600,0.461600,0.461400,0.461100,0.460200,0.460200,0.460100,0.460100,0.460100,1.000000,1.000000,0.498700,0.498700,0.497200,0.495900,0.494700,0.494600,1.000000,1.000000,1.000000,0.499300,0.497800,0.497700,0.497100,0.496300,0.496300,0.496300,0.496300,1.000000,1.000000,0.454900,0.454600,0.454600,1.000000,1.000000,1.000000,1.000000,1.000000,1.000000,1.000000,1.000000,1.000000,1.000000,1.000000,1.000000,1.000000,1.000000,1.000000,0.493600,1.000000,1.000000,1.000000,1.000000,1.000000,1.000000,1.000000,1.000000,1.000000,1.000000,1.000000,1.000000,1.000000,1.000000,1.000000,1.000000,1.000000,1.000000,1.000000,1.000000,1.000000,1.000000,1.000000,1.000000
0.549600,0.549600,1.000000,1.000000,1.000000,1.000000,0.548000,1.000000,0.545600,0.544800,0.544500,0.544300,0.544200,0.544200,0.542800,0.542000,0.542000,0.542000,1.000000,0.543200,0.543000,0.542800,1.000000,1.000000,1.000000,1.000000,1.000000,0.541700,0.541900,0.542200,0.540300,0.540200,0.540100,0.540100,0.540100,0.539200,1.000000,0.539200,0.539200,0.538100,0.537300,0.537300,0.537400,1.000000,1.000000,1.000000,1.000000,1.000000,1.000000,0.535300,1.000000,1.000000,0.533700,0.533600,0.533600,0.533600,0.533600,0.533700,0.533800,1.000000,1.000000,0.534600,0.534500,0.534400,0.530200,0.529200,0.528200,0.528100,0.528000,0.527300,0.527300,0.526300,0.527000,1.000000,1.000000,1.000000,1.000000,1.000000,1.000000,0.527500,0.527600,0.527600,0.527800,0.524900,0.525000,0.525700,0.525800,0.524000,0.523800,0.523800,0.524000,0.524700,0.524600,0.523500,0.523400,1.000000,0.523000,0.522800,0.522700,0.522800,0.522900,0.522900,0.522900,0.522900,0.520700,0.520400,0.519800,0.519700,0.518900,0.519000,0.519100,0.519700,0.519700,0.519700,0.519200,0.519100,0.518800,0.518600,0.518500,0.518400,0.517200,0.517200,0.517300,0.517700,0.517700,0.516600,0.516500,0.516400,1.000000,1.000000,0.473600,0.473700,0.473700,1.000000,1.000000,1.000000,1.000000,1.000000,1.000000,1.000000,1.000000,1.000000,1.000000,1.000000,1.000000,1.000000,1.000000,1.000000,1.000000,1.000000,0.509400,0.509400,0.467000,0.467000,0.467800,0.468200,0.468300,0.466800,0.466200,0.466200,0.466200,0.466200,1.000000,1.000000,0.507700,0.505900,1.000000,0.504800,0.504600,0.504200,0.504000,0.503600,0.503100,0.502200,0.501200,0.500500,0.500400,0.500400,0.502200,0.502200,1.000000,1.000000,0.461700,0.461600,0.461600,0.461400,0.461100,0.460200,0.460100,0.460100,0.460100,0.460100,1.000000,1.000000,0.498800,1.000000,0.498500,0.498400,1.000000,1.000000,1.000000,1.000000,1.000000,1.000000,0.500400,0.497800,0.497700,0.496200,1.000000,1.000000,0.496200,1.000000,0.456600,0.455600,0.455600,1.000000,1.000000,1.000000,1.000000,1.000000,1.000000,1.000000,1.000000,1.000000,1.000000,1.000000,1.000000,1.000000,1.000000,1.000000,1.000000,1.000000,1.000000,1.000000,1.000000,1.000000,1.000000,1.000000,1.000000,1.000000,1.000000,1.000000,1.000000,1.000000,1.000000,1.000000,1.000000,1.000000,1.000000,1.000000,1.000000,1.000000,1.000000,1.000000,1.000000,1.000000
1.000000,1.000000,1.000000,1.000000,1.000000,0.548100,0.548100,0.547700,0.545800,0.545800,0.545300,0.544800,0.545600,0.545600,0.544200,0.544200,0.543200,0.543200,0.543300,1.000000,1.000000,0.542800,0.542800,1.000000,1.000000,1.000000,1.000000,1.000000,0.541900,0.542900,0.542700,0.540200,0.540200,0.540200,0.540100,0.539100,0.539100,0.539100,0.539100,0.539200,0.537400,0.537400,0.537400,0.537400,1.000000,1.000000,1.000000,1.000000,1.000000,1.000000,1.000000,1.000000,1.000000,0.533600,0.533600,0.532800,0.532800,0.532800,1.000000,1.000000,1.000000,1.000000,0.534300,0.534400,0.531500,0.530100,0.528900,0.528000,0.527800,0.527500,0.526300,0.526300,0.526800,1.000000,0.527200,1.000000,1.000000,1.000000,0.527200,0.527500,0.527600,0.528600,0.528600,0.528100,0.528100,0.528100,0.528100,0.526800,0.523900,0.523900,0.524000,0.524600,0.524600,0.524600,0.524600,0.524400,0.523700,0.522900,0.522900,0.522900,0.523000,0.523000,0.523000,0.522900,0.521000,0.521000,0.520300,0.519800,0.519500,0.519000,0.519200,0.519700,0.519700,0.519600,0.519000,0.518900,0.518700,0.518500,0.518400,0.518300,0.518200,0.518100,0.517800,0.517800,0.517700,0.516600,0.516500,0.516400,1.000000,1.000000,0.473600,0.473700,0.473700,1.000000,1.000000,1.000000,1.000000,0.493800,0.493900,0.494100,1.000000,1.000000,1.000000,1.000000,1.000000,1.000000,1.000000,1.000000,1.000000,1.000000,1.000000,1.000000,0.467800,0.467800,0.468400,0.468500,0.468500,0.467200,0.466300,0.466200,0.466200,0.466200,1.000000,1.000000,0.507700,0.505800,0.505100,0.504900,0.504700,0.504100,0.504000,0.503900,0.503100,1.000000,1.000000,1.000000,1.000000,0.502100,1.000000,1.000000,1.000000,1.000000,1.000000,0.461800,0.461700,0.461700,0.461700,0.461700,0.460100,0.460100,0.460200,0.460200,1.000000,1.000000,1.000000,0.498700,0.498600,1.000000,1.000000,1.000000,1.000000,1.000000,1.000000,1.000000,0.500300,0.498600,0.497900,0.496200,1.000000,0.496200,1.000000,1.000000,0.455800,0.455600,1.000000,1.000000,1.000000,1.000000,1.000000,1.000000,1.000000,1.000000,1.000000,1.000000,1.000000,1.000000,1.000000,1.000000,1.000000,1.000000,1.000000,1.000000,1.000000,1.000000,1.000000,1.000000,1.000000,1.000000,1.000000,1.000000,1.000000,1.000000,1.000000,1.000000,1.000000,1.000000,1.000000,1.000000,1.000000,1.000000,1.000000,1.000000,1.000000,1.000000,1.000000,1.000000
0.549200,0.549200,1.000000,1.000000,1.000000,0.548200,0.548200,0.546000,0.546000,0.546000,0.546000,0.546000,0.546000,0.545600,0.545600,0.545600,0.545600,0.545600,0.545700,0.545000,0.544000,0.543000,0.543000,1.000000,0.543800,1.000000,1.000000,1.000000,0.542800,0.544500,0.542800,0.541600,0.540200,0.540200,0.540200,0.539000,0.539000,0.539000,0.539100,0.539200,0.538600,0.537400,0.537400,0.537400,1.000000,1.000000,1.000000,1.000000,0.535000,0.535200,0.535700,1.000000,1.000000,1.000000,1.000000,0.532900,0.532800,0.532900,1.000000,1.000000,1.000000,1.000000,1.000000,0.534200,0.534200,0.531500,0.529900,0.528400,0.527800,1.000000,0.526400,0.527300,1.000000,1.000000,1.000000,1.000000,1.000000,0.529000,0.528000,0.528200,0.528700,0.528600,0.528500,0.527800,0.528000,0.528000,0.528000,0.526800,0.524000,0.524000,0.524000,0.524300,0.524600,0.524600,0.525700,0.525500,0.523900,0.523800,0.522900,0.523000,0.523000,0.523000,0.522900,0.522000,0.521200,0.521100,0.520700,0.520400,0.519700,0.519500,0.519700,0.519700,0.519700,0.519000,0.518900,0.518900,0.518700,0.518500,0.518400,0.518300,0.518100,0.518000,0.517900,0.517800,0.517700,0.516600,0.516500,0.516400,1.000000,1.000000,0.473700,0.473700,0.473700,1.000000,1.000000,0.496600,0.496600,0.495000,0.494800,0.494600,1.000000,1.000000,1.000000,0.500400,0.503900,1.000000,0.495800,0.497100,0.498700,1.000000,1.000000,0.509400,1.000000,0.470200,0.470100,0.468600,0.468600,0.467300,0.466200,0.466200,0.466100,0.466100,1.000000,0.509400,0.507700,0.505400,0.505100,0.504900,0.504800,0.504000,0.504000,0.504000,0.503900,0.501900,0.501400,1.000000,1.000000,0.502200,0.502300,1.000000,1.000000,0.462100,0.462100,0.461900,0.461800,0.461800,0.461800,0.461800,0.461800,0.460200,0.460200,0.460200,1.000000,1.000000,1.000000,1.000000,1.000000,1.000000,1.000000,1.000000,1.000000,1.000000,1.000000,1.000000,1.000000,1.000000,1.000000,1.000000,1.000000,1.000000,1.000000,1.000000,1.000000,1.000000,0.454600,1.000000,1.000000,1.000000,1.000000,1.000000,1.000000,1.000000,1.000000,1.000000,1.000000,1.000000,1.000000,1.000000,1.000000,1.000000,1.000000,1.000000,1.000000,1.000000,1.000000,1.000000,1.000000,1.000000,1.000000,1.000000,1.000000,1.000000,1.000000,1.000000,1.000000,1.000000,1.000000,1.000000,1.000000,0.444500,0.446200,0.446200,1.000000,1.000000,1.000000,1.000000
0.550400,1.000000,1.000000,1.000000,1.000000,1.000000,1.000000,0.546200,0.546200,0.546200,0.546200,0.546200,0.546200,1.000000,1.000000,1.000000,0.545700,0.545700,1.000000,0.545700,1.000000,1.000000,0.543900,0.543900,1.000000,1.000000,1.000000,1.000000,1.000000,1.000000,0.543100,0.541600,0.541600,0.540300,0.540200,0.538800,0.538700,0.538000,0.538000,0.539200,0.539100,0.539100,0.536100,0.536100,1.000000,1.000000,1.000000,0.535800,0.536200,0.536200,0.536300,0.536200,1.000000,0.533700,0.533300,0.533000,0.532800,0.532800,1.000000,1.000000,1.000000,1.000000,1.000000,0.534200,0.534100,0.534000,0.529800,0.529100,0.529000,0.527600,0.527600,1.000000,1.000000,1.000000,0.529400,0.529400,1.000000,1.000000,0.529000,0.528700,0.528700,0.528700,0.528500,0.527100,0.527800,0.527800,0.527800,0.526800,0.526100,0.524100,0.524200,0.524800,0.526900,0.526900,0.525800,0.523900,0.523900,0.523800,0.523700,0.523300,0.523000,0.522900,0.522600,0.522200,0.521700,0.521400,0.520900,0.520800,0.520600,0.519800,0.519800,0.519800,0.518900,0.518900,0.518800,0.518800,0.518600,0.518400,0.517500,0.517500,0.517500,0.517700,0.517600,0.517500,0.516700,0.516600,0.516600,0.516500,1.000000,1.000000,0.473700,0.473700,0.473700,0.474500,1.000000,0.496500,0.496600,0.496600,0.496900,0.497100,1.000000,1.000000,1.000000,1.000000,1.000000,1.000000,0.493000,0.495700,0.498600,1.000000,1.000000,0.509300,1.000000,0.470200,0.470100,0.470100,0.470000,0.467500,0.466200,0.466100,0.466000,1.000000,1.000000,1.000000,1.000000,1.000000,0.505200,0.505100,0.504800,0.504000,0.501800,0.504000,1.000000,0.504000,0.503000,0.501500,0.502500,0.502600,0.502500,0.502700,1.000000,1.000000,0.462200,0.462200,0.462100,0.461800,0.461700,0.461600,0.461800,0.461600,0.460200,0.460200,1.000000,1.000000,1.000000,1.000000,1.000000,1.000000,1.000000,1.000000,1.000000,1.000000,1.000000,1.000000,1.000000,1.000000,1.000000,1.000000,1.000000,1.000000,1.000000,1.000000,1.000000,1.000000,1.000000,1.000000,1.000000,1.000000,1.000000,1.000000,1.000000,1.000000,1.000000,1.000000,1.000000,1.000000,1.000000,1.000000,1.000000,1.000000,1.000000,1.000000,1.000000,1.000000,1.000000,1.000000,1.000000,1.000000,1.000000,1.000000,0.255600,0.255600,1.000000,1.000000,1.000000,1.000000,1.000000,1.000000,1.000000,1.000000,1.000000,1.000000,1.000000,1.000000,1.000000,1.000000
1.000000,1.000000,1.000000,1.000000,1.000000,1.000000,0.549900,0.546200,0.546200,0.546200,0.546200,0.546200,0.546300,0.546400,1.000000,1.000000,0.544200,0.544200,1.000000,1.000000,1.000000,1.000000,1.000000,0.543900,0.543900,1.000000,0.536900,0.538600,0.536900,0.544500,0.541500,0.541500,0.541400,0.541400,0.541300,0.538800,0.538000,0.538000,0.538000,0.538000,0.538000,0.539100,0.539100,1.000000,1.000000,1.000000,1.000000,0.536500,0.536500,0.536500,1.000000,1.000000,0.536100,0.536000,0.533700,0.533600,0.533600,1.000000,1.000000,1.000000,1.000000,1.000000,1.000000,1.000000,0.534100,0.533900,0.529800,0.529300,0.529300,0.529400,0.529400,1.000000,0.529500,0.529400,0.529400,1.000000,1.000000,0.529500,0.529300,0.528800,0.528700,0.528700,0.527000,0.525800,0.527100,0.527700,0.527800,0.526800,0.526700,0.526400,0.526000,0.526700,0.526800,0.526900,0.526900,0.523900,0.523800,0.523800,0.523700,0.523600,0.523100,0.522800,0.522600,0.522300,0.522000,0.522000,0.521500,0.521100,0.521000,0.520900,0.520800,0.519800,0.518900,0.518900,0.518800,0.518700,0.518600,0.518500,0.517500,0.517500,0.517500,0.517600,0.517600,0.517500,0.516800,0.516600,0.516600,0.516600,1.000000,1.000000,0.475200,0.474900,0.474900,0.475300,1.000000,1.000000,0.496600,0.496700,0.497000,0.497100,1.000000,1.000000,1.000000,0.493800,1.000000,1.000000,0.490200,1.000000,0.498600,1.000000,1.000000,0.508200,1.000000,0.470200,0.470100,0.470100,0.470000,0.467400,0.466300,0.466000,1.000000,0.465900,1.000000,1.000000,1.000000,1.000000,1.000000,1.000000,1.000000,1.000000,1.000000,1.000000,0.505800,0.505500,0.505300,0.502800,0.502700,0.502700,0.502800,0.502800,1.000000,1.000000,1.000000,0.462400,0.462400,0.461700,0.461400,0.461400,0.461300,0.461400,0.460300,1.000000,1.000000,1.000000,1.000000,1.000000,1.000000,1.000000,1.000000,1.000000,1.000000,1.000000,1.000000,1.000000,1.000000,1.000000,1.000000,1.000000,1.000000,1.000000,1.000000,1.000000,1.000000,1.000000,1.000000,1.000000,1.000000,0.260400,0.260400,0.260400,0.260400,0.259200,0.259000,0.258900,0.258800,0.258800,0.258700,0.258700,0.257100,0.257000,0.256900,0.256900,0.258100,0.256900,0.256700,0.256200,0.256000,0.256000,0.255900,0.255800,0.254800,0.254700,0.254600,1.000000,1.000000,1.000000,1.000000,1.000000,1.000000,1.000000,1.000000,1.000000,1.000000,1.000000,1.000000,1.000000
1.000000,1.000000,1.000000,0.549100,0.549900,0.549900,0.549900,0.546200,0.546200,0.546200,0.546200,0.546300,0.546500,0.546500,0.546800,0.547500,0.544200,0.544200,1.000000,1.000000,1.000000,1.000000,0.542800,0.542700,0.543900,0.542300,0.538600,0.538600,0.538600,0.541600,0.541400,0.541400,0.541400,0.541400,0.541400,0.540200,0.539200,0.538000,0.538000,0.538000,0.538000,0.539200,0.539200,1.000000,1.000000,1.000000,1.000000,0.536700,0.536800,0.536800,0.536700,1.000000,0.536000,0.536000,0.533700,0.533700,0.533600,0.533600,1.000000,1.000000,1.000000,1.000000,1.000000,0.534000,0.534000,0.533700,0.531900,0.529600,0.529400,0.529400,0.529600,1.000000,0.530300,1.000000,0.529400,0.529500,0.529500,0.529500,0.529600,0.529700,0.528700,0.528700,1.000000,1.000000,1.000000,0.527700,0.528700,0.527800,0.526800,0.526700,0.526700,0.526700,0.526800,0.526800,0.525200,0.523800,0.523800,0.523800,0.523700,0.523600,0.523000,0.522800,0.522600,0.522400,0.522200,0.522100,0.521600,0.521200,0.521200,0.521100,0.521100,0.519900,0.518900,0.518800,0.518800,0.518700,0.518600,0.518600,0.518500,0.517500,0.517500,0.517600,0.517600,0.517600,0.517500,0.516600,0.516600,0.516600,1.000000,1.000000,0.475500,0.475400,0.475400,0.475400,1.000000,1.000000,1.000000,1.000000,0.496800,0.497100,1.000000,1.000000,1.000000,0.493800,0.493600,1.000000,1.000000,1.000000,1.000000,1.000000,1.000000,1.000000,1.000000,0.470200,0.470100,0.470100,0.470000,0.467400,0.466400,0.465900,0.465900,0.465800,1.000000,1.000000,1.000000,1.000000,1.000000,1.000000,1.000000,1.000000,1.000000,1.000000,0.505800,0.505600,0.505400,0.502800,0.502800,0.502800,0.502800,0.502800,1.000000,1.000000,1.000000,0.462400,0.462400,0.461400,0.461300,0.461300,0.461300,1.000000,1.000000,1.000000,1.000000,1.000000,1.000000,1.000000,1.000000,1.000000,1.000000,1.000000,1.000000,1.000000,1.000000,1.000000,1.000000,1.000000,1.000000,1.000000,1.000000,1.000000,1.000000,1.000000,1.000000,0.260300,0.260300,0.260300,0.260300,0.260300,0.260300,0.260400,0.260400,0.259200,0.258900,0.258900,0.258800,0.258800,0.258800,0.257200,0.257000,0.257000,0.256900,0.256800,0.256800,0.256700,0.256200,0.256100,0.256000,0.256000,0.255900,0.255800,0.254700,0.254600,0.254600,0.254500,1.000000,1.000000,1.000000,1.000000,1.000000,1.000000,1.000000,1.000000,1.000000,1.000000,1.000000,1.000000
0.548700,0.547500,0.547500,0.549000,0.549800,0.549900,0.549900,0.546300,0.546100,0.546200,0.546200,0.546300,0.546600,0.546900,0.547300,0.547500,0.547600,0.547600,1.000000,1.000000,0.543900,0.543000,0.542800,0.542700,0.542400,1.000000,0.541000,0.538600,0.538800,0.540600,0.540600,0.541200,0.541400,0.541300,0.541300,0.541300,0.541200,0.539300,0.538000,0.538000,0.539300,1.000000,0.539300,0.539300,1.000000,1.000000,1.000000,0.536900,0.536900,0.536900,1.000000,0.536600,0.536000,0.535900,0.533700,0.533700,0.533500,0.533400,0.533300,1.000000,1.000000,1.000000,1.000000,0.533800,0.533800,0.533600,0.532000,0.530100,0.530000,0.529800,0.531300,0.531200,1.000000,1.000000,0.530500,0.530400,0.530400,0.531700,0.531700,0.531600,0.530100,1.000000,1.000000,0.527200,0.527800,0.528700,0.528700,0.528700,0.527000,0.526800,0.526700,0.526700,0.526700,0.525800,0.524000,0.523800,0.523800,0.523800,0.523700,0.523600,0.523000,0.522800,0.522600,0.522600,0.522400,0.522300,0.521400,0.521300,0.521300,0.521200,0.521200,0.519900,0.518800,0.518800,0.518800,0.518700,0.518600,0.518600,0.518600,0.518500,0.518400,0.517600,0.517700,0.517700,0.517700,0.516900,0.516700,0.516700,1.000000,1.000000,0.475400,0.475400,0.475400,0.475400,1.000000,1.000000,1.000000,1.000000,1.000000,1.000000,1.000000,0.495800,0.495600,0.495000,0.493600,0.493600,0.493400,1.000000,1.000000,1.000000,1.000000,1.000000,1.000000,0.470400,0.470300,0.470200,0.470100,0.467400,0.467400,0.465900,0.465900,0.465800,1.000000,1.000000,1.000000,1.000000,1.000000,1.000000,1.000000,1.000000,1.000000,1.000000,0.505800,0.505500,1.000000,0.503400,0.502900,0.502900,0.502900,1.000000,1.000000,1.000000,1.000000,0.462400,0.462400,0.461200,1.000000,1.000000,1.000000,1.000000,1.000000,1.000000,0.263900,0.263900,0.264000,0.264000,0.264000,0.263800,0.262700,0.262800,0.262800,0.262800,0.262900,0.263000,0.263000,0.263000,0.262700,0.262300,0.261400,0.261300,0.261100,0.260200,0.260200,0.260200,0.260200,0.260200,0.260200,0.260200,0.260300,0.260300,0.259800,0.259000,0.258900,0.258800,0.258800,0.258100,0.257400,0.257100,0.257000,0.257000,0.256900,0.256800,0.256800,0.256400,0.256100,0.256000,0.255900,0.255900,0.255800,0.254800,0.254700,0.254600,0.254500,0.254400,0.254400,1.000000,1.000000,1.000000,1.000000,1.000000,1.000000,1.000000,1.000000,1.000000,1.000000,0.252800
0.548800,0.548800,0.549400,0.549700,0.549800,0.549900,0.549900,0.546700,0.546000,0.546000,0.546200,0.546500,0.546800,0.547100,0.547300,0.547500,0.547600,0.547600,1.000000,1.000000,0.545700,0.542900,0.542800,0.542700,0.542400,0.542300,0.541200,0.539200,0.539200,0.539300,0.539400,0.540700,0.540800,0.541100,0.541300,0.541200,0.541100,0.540900,0.540800,0.540700,0.540600,1.000000,0.539700,0.539300,1.000000,1.000000,1.000000,0.537100,0.537100,0.537100,1.000000,0.536000,0.536000,0.536000,0.535900,0.534300,0.533500,1.000000,0.533200,0.533200,1.000000,1.000000,1.000000,0.533800,0.533600,0.532200,0.530400,0.530300,0.530200,0.530300,0.532100,0.533100,1.000000,1.000000,0.532200,0.532100,0.531900,0.531800,0.531700,0.531600,1.000000,1.000000,1.000000,0.526000,1.000000,0.527900,0.528700,0.528000,0.526900,0.526800,0.526600,0.526600,0.526500,0.524800,0.523800,0.523700,0.523700,0.523700,0.523700,0.523700,0.523200,0.522800,0.522700,0.522600,0.522400,0.522400,0.521200,0.521200,0.521400,0.521500,0.521500,0.521400,0.521200,0.521100,0.520800,0.520500,0.518700,0.518600,0.518600,0.518600,0.518400,0.518300,0.518000,0.517900,0.517800,0.517700,0.517600,1.000000,1.000000,1.000000,0.475400,0.475400,0.475300,0.475400,1.000000,1.000000,1.000000,1.000000,1.000000,1.000000,1.000000,0.496300,0.495600,0.495500,0.494000,1.000000,0.493500,1.000000,0.489800,1.000000,1.000000,1.000000,1.000000,0.470600,0.470500,0.470400,0.470100,0.468700,0.467400,0.465900,0.465900,0.465800,0.466700,1.000000,1.000000,1.000000,1.000000,1.000000,1.000000,1.000000,1.000000,0.505000,0.505000,0.504800,0.505100,1.000000,0.505200,0.503100,1.000000,1.000000,1.000000,1.000000,1.000000,1.000000,1.000000,1.000000,1.000000,1.000000,1.000000,1.000000,0.263000,0.263000,0.263000,0.263000,0.264000,0.264000,0.263900,0.262600,0.262700,0.262700,0.262800,0.262700,0.262700,0.262400,0.262000,0.261900,0.261900,0.261800,0.261400,0.261300,0.261200,0.260100,0.260000,0.260000,0.260000,0.260000,0.260000,0.259900,0.258900,0.258800,0.258800,0.258800,0.258700,0.258700,0.257600,0.257400,0.257300,0.257100,0.257000,0.256900,0.256800,0.256700,0.256600,0.256200,0.256000,0.255800,0.255700,0.255400,0.254900,0.254800,0.254700,0.254600,0.254500,0.254400,0.254300,0.254100,0.254100,0.253800,0.253700,0.253400,1.000000,1.000000,1.000000,0.253000,1.000000,0.252800
0.550700,0.550200,0.549800,0.549800,0.549800,0.549900,0.550200,0.550200,0.546000,0.546000,0.547300,1.000000,0.547200,0.547300,0.547300,1.000000,0.547700,0.547800,1.000000,0.544600,0.544600,0.544500,0.544400,0.544300,0.544300,0.544300,0.541900,0.541100,0.539300,0.539400,0.539400,0.539900,0.540400,0.540600,0.540700,0.540800,0.540800,0.540700,0.540400,0.539800,0.539600,0.539500,0.539300,0.539300,1.000000,1.000000,1.000000,0.537200,0.537200,1.000000,1.000000,0.536000,0.536000,0.536000,0.536000,0.534400,0.533500,1.000000,1.000000,1.000000,1.000000,1.000000,0.533800,0.533600,0.533600,0.532200,0.530500,0.530500,0.530400,0.532000,0.533000,0.533200,0.533200,1.000000,0.532500,0.532500,0.531900,0.531800,0.531700,1.000000,1.000000,1.000000,1.000000,0.526700,1.000000,1.000000,1.000000,0.527200,0.527000,1.000000,0.526600,0.526600,0.526400,0.525000,0.524900,0.524600,0.524800,0.523700,0.523700,0.523700,0.523500,0.522900,0.522700,0.522600,0.522500,0.521100,0.521000,0.521000,0.521000,0.521600,0.521600,0.521400,0.521300,0.521200,0.521100,0.521000,0.520400,0.518700,0.518700,0.518600,0.518400,0.518300,0.518100,0.518000,0.517900,0.517500,0.517500,0.517400,1.000000,1.000000,0.475200,0.474700,0.474500,1.000000,0.475400,1.000000,1.000000,1.000000,1.000000,1.000000,1.000000,0.498000,0.497900,0.494300,0.494300,0.494200,0.493500,0.489900,1.000000,1.000000,1.000000,1.000000,0.482200,0.470900,0.470800,0.470700,0.470500,0.469900,0.468500,0.466800,0.466800,0.466700,0.466700,1.000000,1.000000,1.000000,1.000000,1.000000,1.000000,1.000000,1.000000,1.000000,0.504600,1.000000,0.504700,1.000000,0.503300,1.000000,1.000000,1.000000,1.000000,1.000000,0.265000,0.265000,0.265000,0.265000,1.000000,0.263900,0.263000,0.263000,0.263000,0.263000,0.263000,0.262900,0.262800,0.262600,0.262200,0.262100,0.262000,0.262000,0.262500,0.262300,0.262100,0.262000,0.261900,0.261800,0.261800,0.261700,0.261400,0.261100,0.260000,0.260000,0.260000,0.260000,0.259900,0.259900,0.259800,0.258900,0.258800,0.258800,0.258700,0.258700,0.258600,0.258600,0.257700,0.257400,0.257300,0.257100,0.257100,0.257000,0.256900,0.256700,0.256600,0.256200,0.256000,0.255800,0.255500,0.255300,0.255000,0.254900,0.254700,0.254600,0.254600,0.254400,0.254300,0.254100,0.254000,0.253800,0.253700,0.253400,0.253300,0.253200,0.253100,0.253000,0.252900,0.252800
0.550700,0.550600,0.550100,0.549800,0.549900,0.550100,0.551700,0.550600,0.546000,0.546000,1.000000,0.547300,0.547300,0.547300,0.547400,0.547700,0.547800,0.547900,0.546300,0.544600,0.544600,0.544500,0.544400,0.544400,0.544300,0.544300,0.544300,1.000000,1.000000,1.000000,0.539500,1.000000,0.540200,0.540500,0.540700,0.540700,0.540700,0.540500,0.540100,0.539900,0.539600,0.539500,0.539300,0.539300,1.000000,1.000000,0.537400,0.537400,1.000000,1.000000,0.538000,0.537200,0.536000,0.536000,0.536000,0.536000,0.534400,1.000000,1.000000,1.000000,1.000000,1.000000,0.533700,0.533500,0.533400,0.532300,0.530600,0.530500,0.530600,0.531900,0.531900,0.533200,0.533200,1.000000,1.000000,1.000000,1.000000,0.531600,0.531400,1.000000,1.000000,1.000000,0.526700,0.527800,1.000000,0.527700,0.527300,0.527200,0.527000,1.000000,0.526800,0.526600,0.526400,0.525000,0.525000,0.525000,0.524900,0.524900,0.524700,0.524500,0.523900,0.523800,0.522700,0.522600,0.522500,0.521100,0.521000,0.521000,0.520900,0.521100,0.521900,0.521800,0.521400,0.521300,0.521200,0.521100,0.520900,0.520500,0.518900,0.518800,0.518600,0.518300,0.518100,0.518100,0.517100,0.517100,0.517200,1.000000,1.000000,1.000000,0.475400,0.474600,0.474500,0.474500,1.000000,1.000000,1.000000,1.000000,1.000000,1.000000,1.000000,1.000000,0.494200,0.494300,0.494300,1.000000,1.000000,1.000000,1.000000,1.000000,1.000000,0.487600,0.482200,0.470900,0.470800,0.470800,0.470600,0.469800,0.467500,0.466900,0.466900,0.466800,1.000000,1.000000,1.000000,1.000000,1.000000,1.000000,1.000000,1.000000,1.000000,1.000000,1.000000,1.000000,1.000000,1.000000,1.000000,1.000000,1.000000,1.000000,0.265100,0.265100,0.265000,0.265000,0.265000,0.265000,0.265000,0.263900,0.263200,0.263100,0.263000,0.263000,0.263000,0.262900,0.262800,0.262600,0.262200,0.262000,0.261900,0.261900,0.262000,0.262000,0.261900,0.261900,0.261800,0.261800,0.261600,0.261600,0.261300,0.260000,0.260000,0.259900,0.259900,0.259800,0.259700,0.259300,0.259100,0.258900,0.258800,0.258800,0.258700,0.258600,0.258400,0.258400,0.258000,0.257500,0.257400,0.257200,0.257100,0.257000,0.256900,0.256700,0.256500,0.256200,0.256000,0.255800,0.255500,0.255400,0.255100,0.255000,0.254800,0.254700,0.254600,0.254400,0.254300,0.254200,0.254100,0.254000,0.253700,0.253400,0.253300,0.253200,0.253100,0.253100,0.253000,0.252900
0.550700,0.550600,0.550600,0.550000,0.550200,0.551700,0.551700,0.550700,0.546100,0.546100,1.000000,1.000000,0.547300,0.547300,0.547400,0.548000,0.548000,0.548000,1.000000,0.544600,0.544500,0.544500,0.544400,0.544400,0.544300,0.544400,0.544400,1.000000,0.544500,1.000000,1.000000,1.000000,0.540100,0.540500,0.540600,0.540600,0.540600,0.540300,0.540200,0.540000,0.539700,0.539500,0.539400,1.000000,1.000000,1.000000,0.537400,0.537400,0.537700,0.537900,0.538000,0.538000,1.000000,0.536000,0.536000,1.000000,1.000000,1.000000,1.000000,1.000000,1.000000,1.000000,1.000000,0.533300,0.533300,0.533100,0.531900,0.530600,0.531800,0.531800,0.531800,0.531800,0.532100,0.532800,1.000000,1.000000,1.000000,0.526900,0.531300,0.526900,1.000000,0.526900,0.526800,0.528400,0.528300,0.528100,0.528000,0.527200,0.527400,1.000000,0.526800,0.526700,0.526600,0.526200,0.525100,0.525000,0.525000,0.524900,0.524800,0.524600,0.524200,0.524000,0.523900,0.522600,0.522600,0.521500,0.520900,0.520900,0.520900,0.521700,0.522600,0.522400,0.521400,0.521300,0.521200,0.521100,0.520900,0.519000,0.519000,0.518900,0.518900,0.518300,0.518200,0.517100,0.517100,0.517100,0.517200,0.517200,1.000000,1.000000,0.475800,0.474500,0.474500,0.474400,0.474400,1.000000,1.000000,1.000000,1.000000,1.000000,1.000000,1.000000,0.494200,0.494300,1.000000,1.000000,1.000000,1.000000,1.000000,1.000000,1.000000,0.485200,0.483600,0.472600,0.470800,0.470800,0.470600,0.469500,0.467100,0.467000,0.466900,0.466900,1.000000,1.000000,1.000000,1.000000,1.000000,1.000000,1.000000,0.267100,1.000000,1.000000,1.000000,1.000000,1.000000,1.000000,1.000000,1.000000,0.265400,0.265300,0.265200,0.265100,0.265000,0.265000,0.265000,0.265000,0.264200,0.263900,0.263400,0.263200,0.263100,0.263100,0.263000,0.262900,0.262900,0.262600,0.262100,0.262000,0.261900,0.261800,0.261900,0.261900,0.261900,0.261800,0.261700,0.261700,0.261600,0.261500,0.261200,0.260000,0.260000,0.259900,0.259800,0.259700,0.259600,0.259200,0.259000,0.258900,0.258800,0.258700,0.258700,0.258600,0.258400,0.258300,0.258000,0.257800,0.257400,0.257300,0.257200,0.257000,0.256900,0.256700,0.256500,0.256200,0.256100,0.255800,0.255600,0.255400,0.255200,0.255000,0.254900,0.254800,0.254700,0.254400,0.254400,0.254200,0.254200,0.254100,0.253700,0.253400,0.253300,0.253300,0.253200,0.253200,0.253100,0.253000
0.550800,0.550700,0.551600,0.551600,0.551600,0.551700,0.551700,0.549600,0.546100,0.546200,0.546200,1.000000,1.000000,1.000000,0.547400,1.000000,0.548100,0.548100,0.547000,0.546400,0.544500,0.544500,0.544400,0.544400,0.544400,0.544400,0.545200,0.546600,0.547300,1.000000,1.000000,1.000000,0.540300,0.540600,0.540600,0.540600,0.540500,0.540200,0.540200,0.540100,0.540100,0.540400,0.539300,0.539300,1.000000,1.000000,0.537400,0.537400,0.537400,0.537400,0.538000,1.000000,1.000000,0.536000,1.000000,1.000000,1.000000,1.000000,1.000000,1.000000,1.000000,1.000000,1.000000,0.532000,0.533200,0.533200,0.533200,0.533000,0.533000,0.531800,0.531800,0.531800,0.531400,0.530800,1.000000,1.000000,1.000000,0.526900,0.526900,1.000000,1.000000,0.527000,0.529800,0.530600,0.530000,0.528200,0.528100,0.528000,0.527800,1.000000,0.527000,0.526900,0.526700,0.526300,0.525100,0.525000,0.525000,0.525000,0.524700,0.524600,0.524300,0.524100,0.524000,0.523900,0.522700,0.522600,0.520900,0.520900,0.520900,0.522800,0.522600,0.522400,0.521500,0.521400,0.521200,0.521200,0.519100,0.519100,0.519100,0.519000,0.519000,0.518900,0.518200,0.518200,0.517100,0.517100,0.517200,1.000000,1.000000,1.000000,0.475900,0.475900,0.476000,0.476000,0.476200,1.000000,1.000000,1.000000,1.000000,1.000000,1.000000,1.000000,1.000000,0.494200,0.494300,0.494300,1.000000,1.000000,1.000000,1.000000,1.000000,0.483600,0.479000,0.473100,0.472000,0.470700,0.470600,0.469300,0.467200,0.467000,0.467000,0.466900,1.000000,1.000000,1.000000,1.000000,1.000000,1.000000,0.267300,0.267200,0.267000,0.267000,0.266900,0.266300,0.266000,0.266000,0.265800,0.265600,0.265400,0.265400,0.265200,0.265200,0.265100,0.265100,0.265000,0.265000,0.264000,0.264000,0.263800,0.263600,0.263300,0.263200,0.263000,0.263000,0.262900,0.262700,0.262100,0.262000,0.261900,0.261800,0.261800,0.261800,0.261800,0.261800,0.261700,0.261700,0.261500,0.261400,0.260300,0.260000,0.260000,0.259800,0.259800,0.259600,0.259500,0.259100,0.259000,0.258800,0.258800,0.258800,0.258700,0.258600,0.258400,0.258300,0.257900,0.257800,0.257600,0.257400,0.257300,0.257100,0.257000,0.256800,0.256500,0.256300,0.256100,0.256000,0.255700,0.255600,0.255400,0.255200,0.255000,0.254800,0.254700,0.254500,0.254400,0.254300,0.254300,0.254300,0.254200,0.253500,0.253400,0.253300,0.253300,0.253200,0.253200,0.253100
0.550800,0.550800,0.551600,0.551500,0.551600,0.551600,0.551700,0.549500,0.549400,0.546200,0.546200,0.546200,1.000000,1.000000,1.000000,1.000000,0.547300,0.547200,0.547200,0.546700,0.546100,0.544500,0.544500,0.544400,0.544500,1.000000,1.000000,0.547300,0.546500,1.000000,1.000000,1.000000,1.000000,1.000000,0.540800,0.540600,0.540500,0.540200,0.540200,1.000000,0.540200,1.000000,1.000000,1.000000,1.000000,1.000000,1.000000,1.000000,0.537400,0.537400,1.000000,1.000000,1.000000,1.000000,1.000000,1.000000,0.539000,1.000000,1.000000,1.000000,1.000000,1.000000,1.000000,0.532100,0.532400,0.533000,0.533100,0.533100,0.533000,0.531800,0.531700,0.531200,0.530900,0.529600,0.528000,0.525500,0.525500,0.525500,0.525600,0.527000,0.527000,0.529700,0.529600,0.529800,0.528400,0.528200,0.528100,0.528000,0.527800,0.527600,0.527300,0.527000,0.526700,0.526500,1.000000,0.525000,0.526100,0.526100,0.526100,0.524600,0.524300,0.524100,0.524100,0.524000,0.523900,0.523000,0.523100,0.523100,0.523200,0.523600,0.523800,0.522500,0.522400,0.522400,0.521300,0.521200,0.520100,0.519100,0.519100,0.519200,0.519200,0.518200,0.518200,0.518200,0.518200,0.518000,0.518000,0.517500,1.000000,1.000000,0.476000,0.476000,0.476000,0.476200,1.000000,1.000000,1.000000,1.000000,1.000000,1.000000,1.000000,0.491100,0.491100,0.491000,0.489800,0.489800,0.489500,1.000000,1.000000,1.000000,1.000000,0.476900,0.474400,0.473200,0.472400,0.470800,0.470600,0.469400,0.467200,0.467100,0.467000,0.467000,1.000000,1.000000,1.000000,1.000000,1.000000,0.267400,0.267400,0.267200,0.267100,0.267000,0.266700,0.266300,0.266100,0.266000,0.265800,0.265700,0.265600,0.265400,0.265300,0.265300,0.265300,0.265200,0.265200,0.265100,0.264200,0.264000,0.264000,0.263900,0.263800,0.263800,0.263400,0.263200,0.263000,0.262900,0.262800,0.262600,0.262400,0.261800,0.261800,0.261800,0.261800,0.261800,0.261700,0.261600,0.261100,0.260800,0.260200,0.260100,0.260000,0.259800,0.259800,0.259600,0.259400,0.259100,0.259000,0.258800,0.258800,0.258800,0.258700,0.258700,0.258500,0.258200,0.257800,0.257700,0.257600,0.257400,0.257300,0.257100,0.257000,0.256800,0.256500,0.256300,0.256200,0.256100,0.255900,0.255800,0.255500,0.255400,0.255100,0.255000,0.254800,0.254700,0.254600,0.254600,0.254700,0.254600,0.254500,0.253500,0.253500,0.253400,0.253400,0.253400,0.253400,0.253300
0.551800,0.551700,0.551500,0.551300,0.551400,0.551600,0.550700,0.549400,0.549400,0.549300,0.547400,0.546200,0.544800,1.000000,1.000000,1.000000,1.000000,0.547300,0.547300,0.547000,0.544700,0.544500,0.544400,0.543600,0.544500,1.000000,0.546600,0.546600,0.543600,0.542000,1.000000,1.000000,1.000000,0.541200,0.541000,0.540700,0.540500,0.540200,0.540200,0.540100,0.540000,1.000000,1.000000,1.000000,1.000000,1.000000,0.537400,0.538200,0.537500,0.538000,1.000000,1.000000,1.000000,1.000000,1.000000,0.539100,0.539000,0.537400,1.000000,1.000000,1.000000,1.000000,1.000000,0.532200,0.532400,0.532600,0.532900,0.533000,0.531800,0.531800,0.531600,0.531100,0.531000,0.529600,0.529000,0.527800,0.525500,0.525500,0.527000,0.527200,0.529600,0.529600,0.529600,0.529600,0.528400,0.528200,0.528100,0.528000,0.527500,0.527400,0.527200,0.526800,0.525000,0.524900,1.000000,0.526100,0.526900,0.527200,0.526100,0.524400,0.524200,0.524100,0.524100,0.524000,0.524000,0.523800,0.523100,0.523200,0.523200,0.523800,0.523800,0.522500,0.522400,0.522400,0.522000,0.521300,0.520100,0.520200,0.520300,0.520300,0.519300,0.518300,0.518300,0.518300,0.518800,0.518000,0.518000,0.518000,1.000000,1.000000,0.476000,0.476000,0.476100,0.476200,1.000000,0.475200,1.000000,1.000000,1.000000,1.000000,1.000000,1.000000,0.486600,0.488500,0.488500,0.488500,0.483300,0.479800,1.000000,1.000000,0.474400,0.474400,0.474300,0.473500,0.472600,0.471500,0.470600,0.469400,0.467300,0.467200,0.467100,0.467100,0.467000,0.465900,0.464900,1.000000,1.000000,0.267500,0.267500,0.267300,0.267200,0.267000,0.266700,0.266400,0.266200,0.266000,0.265800,0.265700,0.265600,0.265400,0.265300,0.265300,0.265300,0.265200,0.265200,0.265000,0.264500,0.264100,0.264000,0.264000,0.263900,0.263800,0.263600,0.263300,0.263200,0.263000,0.262900,0.262700,0.262600,0.262200,0.261900,0.261800,0.261800,0.261800,0.261700,0.261400,0.261000,0.260800,0.260600,0.260400,0.260100,0.259800,0.259800,0.259600,0.259400,0.259300,0.259000,0.258900,0.258800,0.258800,0.258800,0.258900,0.258900,0.258800,0.257800,0.257800,0.257700,0.257500,0.257400,0.257300,0.257100,0.257000,0.256600,0.256500,0.256300,0.256300,0.256100,0.255900,0.255600,0.255400,0.255100,0.255000,0.254900,0.254800,0.255400,0.255400,0.255100,0.254800,0.254500,0.254300,0.253600,0.253600,0.253500,0.253500,0.253400,0.253300
0.551900,0.550800,0.550800,0.550900,0.550900,0.550800,0.549400,0.549400,0.549400,0.549300,0.548000,0.547300,0.545900,1.000000,0.543400,0.543300,0.547400,0.547400,1.000000,0.545000,0.544800,0.544200,1.000000,1.000000,1.000000,1.000000,0.546500,0.546600,0.545000,0.543500,0.541800,1.000000,1.000000,1.000000,1.000000,0.541000,0.540900,0.542000,0.542000,0.540100,0.539900,0.539800,1.000000,1.000000,1.000000,1.000000,1.000000,0.538300,0.540800,0.540100,0.540900,0.538400,1.000000,0.540600,0.540600,0.540600,0.536900,0.536600,0.536600,1.000000,1.000000,1.000000,1.000000,0.532300,0.532400,0.532500,0.532700,0.532900,0.531900,0.531800,0.531600,0.531300,0.531000,0.529600,0.529500,0.529200,0.527700,0.527600,0.529000,0.529700,0.529800,0.529600,0.529400,0.528900,0.527200,0.527800,0.528000,0.528000,0.527500,0.527300,0.527200,0.525800,0.524900,0.524900,1.000000,0.527100,0.527200,0.527100,0.527200,0.524600,0.524100,0.524100,0.524100,0.524100,0.524400,0.524200,0.523300,0.523300,0.524100,0.524000,0.523900,0.522500,0.522400,0.522400,0.522300,0.521300,0.521200,0.521200,0.521200,0.518500,0.518400,0.518400,0.518400,0.518400,0.519000,0.518100,0.518000,0.518000,1.000000,1.000000,0.475900,0.476000,0.476100,0.476200,0.475000,0.473300,0.473400,0.474400,0.476100,0.476700,0.476800,0.476000,0.475800,0.475600,0.473800,0.473800,0.473800,0.474400,0.472800,0.472700,0.472700,0.472800,0.474000,0.473200,0.471700,0.471500,0.471200,0.469500,0.467400,0.467400,0.467300,0.467300,0.467100,0.466800,0.465000,0.464800,1.000000,0.267600,0.267600,0.267400,0.267300,0.267200,0.266800,0.266700,0.266500,0.266500,0.266400,0.265900,0.265700,0.265500,0.265400,0.265300,0.265200,0.265100,0.265000,0.264700,0.264400,0.264300,0.264100,0.264000,0.264000,0.263900,0.263800,0.263600,0.263400,0.263200,0.263000,0.262800,0.262700,0.262400,0.262000,0.261900,0.261800,0.261800,0.261500,0.261200,0.260900,0.260800,0.260700,0.260700,0.260600,0.259900,0.259800,0.259600,0.259500,0.259300,0.259000,0.258900,0.258900,0.258900,0.258900,0.259000,0.259000,0.258900,0.258800,0.257800,0.257700,0.257600,0.257500,0.257300,0.257300,0.257200,0.256900,0.256700,0.256500,0.256400,0.256300,0.256300,0.256100,0.255800,0.255400,0.255300,0.255200,0.255600,0.255600,0.255400,0.255300,0.255200,0.254500,0.254200,0.253900,0.253800,0.253700,0.253600,0.253500,0.253400
0.550700,0.550700,0.550800,0.550800,0.550800,0.550800,0.549400,0.549400,0.549300,0.549300,0.547900,0.547700,0.547200,0.547200,0.547200,0.548200,0.550200,0.547500,0.547400,0.544800,1.000000,0.542200,1.000000,1.000000,0.541900,0.543300,0.544900,0.546600,0.546600,1.000000,0.542000,1.000000,1.000000,1.000000,1.000000,0.542000,0.542100,0.542000,0.542000,0.542100,0.539900,0.539700,0.539700,1.000000,1.000000,1.000000,1.000000,1.000000,0.538200,0.538300,0.538300,0.538300,0.538400,0.539600,0.540600,0.540600,0.536900,0.536600,0.536600,1.000000,1.000000,1.000000,1.000000,0.532400,0.532400,0.532500,0.532700,0.533000,0.533000,0.533100,0.533200,0.533100,0.531000,0.531000,0.529500,0.529400,0.529300,0.529400,0.529600,0.530300,0.532500,0.530000,0.529400,0.528600,0.527100,0.527100,0.528000,0.528000,0.527400,0.527300,0.527200,0.525800,0.524900,1.000000,0.524900,0.526100,0.527100,0.527100,0.527100,0.524700,0.524100,0.524100,0.524100,0.525200,0.524800,0.524400,0.524300,0.524300,0.524200,0.524100,0.524000,0.522500,0.522500,0.522400,0.521400,0.521200,0.521200,0.521200,0.521200,0.518500,0.518400,0.518400,0.518400,0.518700,0.519000,0.519100,0.518000,0.518000,1.000000,1.000000,0.475900,0.476000,0.476000,0.476100,0.474800,0.473300,0.473300,0.473300,0.475900,0.476700,0.476700,0.476000,0.474300,0.474000,0.473800,0.473700,0.473200,0.473000,0.472700,0.472600,0.472600,0.472700,0.473000,0.471800,0.471700,0.471600,0.471500,0.471200,0.469200,0.467800,0.467800,0.468600,0.468100,0.467200,0.465000,0.465000,1.000000,0.267600,0.267600,0.267500,0.267300,0.267200,0.266900,0.266800,0.266600,0.266600,0.266500,0.266400,0.265900,0.265600,0.265400,0.265300,0.265200,0.265000,0.265000,0.264600,0.264500,0.264400,0.264200,0.264100,0.264000,0.264000,0.263800,0.263700,0.263600,0.263300,0.263200,0.262900,0.262700,0.262600,0.262100,0.261900,0.261800,0.261800,0.261500,0.261200,0.261000,0.260900,0.260800,0.260700,0.260700,0.259900,0.259800,0.259600,0.259500,0.259400,0.259100,0.259000,0.259000,0.259000,0.259000,0.259100,0.259000,0.259000,0.258800,0.258800,0.257800,0.257600,0.257600,0.257500,0.257400,0.257300,0.257100,0.257000,0.256600,0.256500,0.256400,0.256300,0.256200,0.256100,0.255600,0.255600,0.255700,0.255700,0.255600,0.255400,0.255300,0.255200,0.254400,0.254200,0.254000,0.253800,0.253800,0.253700,0.253600,0.253400
0.550600,0.550600,0.550700,0.550800,0.550800,0.551700,0.550600,0.549400,0.548000,0.547900,1.000000,1.000000,0.547900,1.000000,0.550500,0.550500,0.551600,0.550000,0.547700,0.546000,0.546100,0.540800,0.540800,1.000000,1.000000,0.541800,0.543300,0.545000,0.546600,0.546600,0.543400,0.543400,0.541900,0.543900,1.000000,0.542200,0.542900,0.542100,0.542100,1.000000,0.540200,0.539700,0.539600,0.539600,1.000000,1.000000,1.000000,0.538100,0.538200,0.538200,0.538200,0.536200,0.536700,0.538400,0.539600,0.539600,0.537000,0.537000,0.536800,1.000000,1.000000,1.000000,1.000000,1.000000,1.000000,1.000000,0.535300,0.535200,0.535100,0.535000,0.535000,0.534900,0.532900,0.532800,0.532700,0.530800,0.530600,0.530600,0.530600,0.532700,0.532800,0.532700,0.527600,0.527100,0.527100,0.527100,0.528000,0.529500,0.529000,0.528900,0.527200,0.525900,0.524900,0.524900,0.524800,0.526200,0.526400,0.526600,0.526600,0.526600,0.524600,0.524100,0.526100,0.525600,0.525200,0.524700,0.524400,0.524400,0.524300,0.524200,0.522600,0.522600,0.522500,0.522500,0.521200,0.521200,0.521200,0.521100,0.520400,0.518600,0.518600,0.518600,0.518700,0.518900,0.519100,0.519100,0.520400,0.519200,1.000000,1.000000,0.475900,0.476000,0.476000,0.476000,0.474700,0.473200,0.473200,0.473200,0.475800,0.476600,0.476400,0.474400,0.474300,0.474000,0.473800,0.473700,0.473100,0.473000,0.472700,0.472700,0.472700,0.472700,0.472900,0.471900,0.471800,0.471800,0.471600,0.471500,0.469800,0.469200,0.469200,0.469200,0.468800,0.468200,0.466500,0.464900,1.000000,0.267700,0.267600,0.267500,0.267400,0.267200,0.267000,0.266900,0.266700,0.266600,0.266500,0.266400,0.266200,0.265600,0.265500,0.265200,0.265200,0.265000,0.264900,0.264600,0.264500,0.264400,0.264200,0.264100,0.264000,0.263900,0.263800,0.263700,0.263600,0.263400,0.263400,0.263100,0.263000,0.262700,0.262200,0.262000,0.261900,0.261800,0.261600,0.261400,0.261000,0.261000,0.260800,0.260800,0.260800,0.260700,0.260700,0.259800,0.259700,0.259600,0.259200,0.259100,0.259100,0.259100,0.259200,0.259200,0.259100,0.259000,0.258800,0.258700,0.258600,0.258100,0.257800,0.257600,0.257500,0.257400,0.257300,0.257200,0.256700,0.256600,0.256500,0.256300,0.256200,0.256200,0.256000,0.255900,0.255800,0.255700,0.255600,0.255400,0.255100,0.254600,0.254300,0.254200,0.254000,0.253900,0.253800,0.253700,0.253600,0.253400
0.550300,0.550300,0.549100,0.550800,0.550800,0.551700,0.550600,0.548100,0.548000,0.548000,0.547900,0.547900,1.000000,0.550500,0.550500,0.551600,0.551600,0.551600,0.549500,0.548100,0.547100,0.543800,0.541600,0.540700,0.540700,0.541800,1.000000,1.000000,0.546800,0.546800,0.544700,0.544800,1.000000,0.544900,1.000000,0.545400,0.544200,0.544100,0.544100,1.000000,0.540100,1.000000,0.539600,0.539500,1.000000,1.000000,1.000000,1.000000,0.538000,1.000000,0.536200,0.536100,0.536100,0.536200,0.536300,0.537000,0.537000,0.537000,0.536800,0.533400,1.000000,1.000000,0.534900,0.535000,1.000000,1.000000,0.535300,0.535200,0.535100,0.535000,0.534900,0.534800,0.532800,0.532700,0.532700,0.532700,0.531000,0.531400,0.531500,0.531500,0.532800,0.530000,0.528400,0.527100,0.527100,0.529600,0.529600,0.529700,0.529000,0.528900,0.528700,0.528600,0.528000,0.526000,0.526100,0.526200,0.526400,0.526500,0.526600,0.526600,0.526600,0.526600,0.526500,0.526400,0.525400,0.525200,0.524700,0.524500,0.524400,0.522700,0.522700,0.522600,0.522600,0.522500,0.521200,0.521000,0.520800,0.520500,0.520400,0.520300,0.518600,0.518600,0.518900,0.519000,0.520400,0.520400,0.520500,0.520500,1.000000,1.000000,0.475900,0.476000,0.476000,0.476000,0.475900,0.473200,0.473200,0.474700,0.475600,0.476500,0.476500,0.474400,0.474400,0.474300,0.473800,0.473600,0.473100,0.473000,0.472800,0.472700,0.472700,0.472800,0.472900,0.472400,0.472000,0.472000,0.471800,0.471700,0.469800,0.469800,0.469600,0.469600,0.469500,0.468400,0.468300,0.467600,1.000000,0.267800,0.267800,0.267600,0.267600,0.267300,0.267000,0.266900,0.266700,0.266600,0.266400,0.266300,0.266200,0.266000,0.265900,0.265300,0.265200,0.265000,0.265000,0.264800,0.264700,0.264400,0.264000,0.264000,0.263900,0.263900,0.263800,0.263700,0.263600,0.263400,0.263300,0.263100,0.263000,0.262800,0.262200,0.262000,0.261900,0.261800,0.261600,0.261400,0.261100,0.261000,0.260800,0.260800,0.260700,0.260600,0.260500,0.260000,0.259900,0.259800,0.259400,0.259200,0.259200,0.259200,0.259200,0.259200,0.259000,0.258900,0.258700,0.258600,0.258500,0.258200,0.258000,0.257700,0.257600,0.257500,0.257300,0.257200,0.256800,0.256700,0.256500,0.256300,0.256200,0.256200,0.256100,0.256100,0.256000,0.255800,0.255600,0.255100,0.254700,0.254500,0.254300,0.254200,0.254000,0.254000,0.253800,0.253700,0.253600,0.253400
0.550200,0.550200,0.549100,0.549100,1.000000,0.550700,0.549500,0.549400,0.548100,0.548000,0.548000,0.551400,0.550800,0.550300,0.550300,0.550400,0.550600,0.550600,0.549200,0.549000,0.548900,0.546100,0.546100,1.000000,0.541800,0.543400,0.545400,0.546900,0.546900,0.546900,0.544800,0.544800,0.544800,0.544900,0.545300,0.545400,0.544100,0.543300,0.543300,0.543100,0.541400,0.541700,0.541600,0.539500,1.000000,1.000000,1.000000,1.000000,1.000000,0.537900,0.537900,0.536100,0.536100,0.536200,0.536300,0.536800,0.536900,0.537000,0.536900,0.533400,1.000000,1.000000,0.535700,0.536300,1.000000,1.000000,0.535600,0.535300,0.535200,0.535000,0.534900,0.533000,0.532700,0.532700,0.532700,0.532700,0.532700,0.531500,0.531500,0.531500,0.531500,0.530000,0.528400,0.528400,0.528400,0.529600,0.529700,0.529700,0.526300,0.526300,0.526400,0.527900,0.528200,0.527900,0.527800,0.526700,0.526400,0.526500,0.526600,0.526600,0.526600,0.526600,0.526600,0.525500,0.525400,0.525300,0.525000,0.524600,0.524200,0.522700,0.522700,0.522700,0.522600,0.522600,0.521600,0.521000,0.520800,0.520600,0.520500,0.520400,0.520400,0.520400,0.520400,0.520400,0.520400,0.520500,0.520600,0.520600,1.000000,1.000000,0.476100,0.476800,0.477000,0.477200,0.477200,0.475200,0.475100,0.475200,0.476000,0.476400,0.476400,0.474500,0.474500,0.474600,0.474600,0.474600,0.473300,0.473000,0.472900,0.472900,0.472900,0.473000,0.472900,0.472200,0.472100,0.472000,0.471800,0.471800,0.469800,0.469800,0.469700,0.469600,0.469600,0.469400,0.468300,0.468300,1.000000,0.267900,0.267800,0.267800,0.267700,0.267500,0.267000,0.266900,0.266500,0.266300,0.266100,0.266100,0.266000,0.266000,0.265900,0.265500,0.265300,0.265100,0.265100,0.265000,0.265000,0.264900,0.264000,0.263900,0.263800,0.263800,0.263600,0.263600,0.263400,0.263300,0.263200,0.263000,0.262900,0.262700,0.262200,0.262000,0.261800,0.261700,0.261600,0.261400,0.261200,0.261000,0.260800,0.260800,0.260700,0.260500,0.260400,0.260100,0.260000,0.259900,0.259700,0.259500,0.259300,0.259200,0.259200,0.259000,0.258600,0.258500,0.258400,0.258400,0.258400,0.258100,0.257900,0.257700,0.257600,0.257400,0.257100,0.257000,0.256800,0.255800,0.255800,0.255900,0.256100,0.256200,0.256200,0.256100,0.256000,0.255800,0.255400,0.254700,0.254600,0.254400,0.254300,0.254200,0.254000,0.253900,0.253800,0.253600,0.253500,0.253300
0.550100,0.549100,0.549100,0.549100,0.550800,0.550700,0.550600,0.549800,0.549700,0.549700,0.551400,0.551500,0.551500,0.550200,0.550200,0.550400,0.550600,0.550600,0.549100,0.548900,0.548900,0.547300,0.547300,0.545700,0.545400,0.545400,0.545400,1.000000,0.546900,0.545600,0.544900,0.544900,0.545000,1.000000,1.000000,1.000000,1.000000,0.543100,0.543100,1.000000,1.000000,1.000000,0.543100,0.541700,0.542000,1.000000,1.000000,1.000000,0.539500,0.539500,0.539500,0.536100,0.536100,0.536200,0.536300,0.536800,0.536800,0.536900,0.536800,0.536700,0.536400,1.000000,1.000000,0.536400,0.536800,0.536900,0.535600,0.535400,0.535200,0.535000,0.533800,0.533200,0.532600,0.532700,0.532700,0.532700,0.534000,0.533500,0.532500,0.531600,0.531600,0.530300,0.528400,0.528400,0.528400,0.529600,0.529600,0.529700,0.526400,0.526400,0.526400,0.527900,0.528000,0.527900,0.527800,0.527400,0.527200,0.527000,0.526800,0.526700,0.526700,0.526700,0.526700,0.525500,0.525500,0.525400,0.525400,0.524300,0.524000,0.522800,0.522800,0.522800,0.522700,0.522600,0.521300,0.521000,0.520800,0.520700,0.520600,0.520500,0.520500,0.520400,0.520400,0.520400,0.520500,0.520600,0.520600,0.520700,1.000000,1.000000,0.477100,0.477200,0.477200,0.477200,0.477200,0.476000,0.475200,0.475200,0.475400,0.476400,0.476400,0.474500,0.474600,0.474600,0.474600,0.473000,0.473000,0.473000,0.473000,0.473100,0.473100,0.473100,0.473000,0.472100,0.472000,0.472000,0.471800,0.471700,0.469900,0.469800,0.469700,0.469700,0.469700,0.469600,0.468300,1.000000,1.000000,0.267900,0.267900,0.267800,0.267800,0.267700,0.267300,0.267000,0.266400,0.266200,0.266100,0.266000,0.266000,0.266000,0.265900,0.265800,0.265600,0.265400,0.265200,0.265100,0.265000,0.265000,0.263900,0.263800,0.263600,0.263600,0.263300,0.263200,0.263000,0.262900,0.262900,0.262800,0.262700,0.262400,0.262100,0.262000,0.261800,0.261700,0.261500,0.261400,0.261200,0.261000,0.260800,0.260700,0.260600,0.260400,0.260300,0.260100,0.260000,0.259900,0.259700,0.259600,0.259300,0.259200,0.259100,0.258900,0.258400,0.258400,0.258400,0.258300,0.258300,0.258000,0.257900,0.257700,0.257600,0.257300,0.257000,0.256900,0.256700,0.255800,0.255900,0.255900,0.256100,0.256200,0.256200,0.256200,0.256100,0.255900,0.255200,0.254700,0.254500,0.254400,0.254200,0.254200,0.254000,0.253900,0.253800,0.253600,0.253400,0.253300
1.000000,1.000000,1.000000,0.552700,0.552600,0.552300,0.550500,0.550400,0.550400,0.550400,1.000000,0.552200,0.551600,0.550000,0.550100,0.550400,0.550600,0.550600,0.549000,0.548800,0.547400,0.547300,0.547300,0.547300,0.545400,0.545400,0.545300,0.545300,0.545300,0.545500,0.545400,0.545100,0.545100,0.545100,1.000000,0.542200,0.542100,0.542000,0.541900,1.000000,1.000000,1.000000,0.543100,0.543100,0.543000,1.000000,1.000000,1.000000,0.537500,0.539500,0.539500,0.539500,0.538500,0.538200,0.538200,0.538100,0.536800,0.536900,0.536800,0.536700,1.000000,1.000000,1.000000,0.536500,0.536800,0.536800,0.535800,0.535600,0.535400,0.535300,0.535300,0.533800,0.532600,1.000000,0.534200,0.534200,0.534200,0.534000,0.533800,0.533000,0.531600,0.531700,0.528400,0.528400,0.528400,0.528400,0.529700,0.529600,0.527900,0.526400,0.526600,0.527900,0.527900,0.527800,0.526500,0.527100,0.527200,0.527100,0.526800,0.526800,0.526700,0.526700,0.526700,0.526700,0.526400,0.525600,0.525600,0.524800,0.524500,0.523500,0.523100,0.523000,0.522900,0.522800,0.521300,0.521200,0.521000,0.520900,0.520900,0.520800,0.520800,0.521800,0.521800,0.521800,0.520600,0.520700,0.520800,0.520800,1.000000,1.000000,1.000000,0.477400,0.477400,0.477300,0.477300,0.475600,0.475300,0.475300,0.475500,0.476400,0.476400,0.476400,0.474600,0.474600,0.473000,0.473000,0.473000,0.473000,0.473100,0.473200,0.473200,0.473200,0.472500,0.472100,0.472000,0.471900,0.471700,0.471600,0.469800,0.469800,0.469700,0.469700,0.469700,0.469600,1.000000,1.000000,1.000000,0.267800,0.267800,0.267700,0.267700,0.267600,0.267400,0.267200,0.266600,0.266100,0.266000,0.265900,0.265900,0.265900,0.265900,0.265800,0.265700,0.265600,0.265400,0.265200,0.265100,0.264000,0.263900,0.263800,0.263600,0.263500,0.263300,0.263100,0.263000,0.262900,0.262800,0.262700,0.262500,0.262300,0.262000,0.262000,0.261800,0.261600,0.261400,0.261400,0.261100,0.261000,0.260800,0.260700,0.260600,0.260400,0.260300,0.260100,0.260000,0.259900,0.259800,0.259700,0.259400,0.259200,0.259000,0.258800,0.258600,0.258400,0.258300,0.258300,0.258200,0.258000,0.257800,0.257500,0.257100,0.257000,0.256900,0.256800,0.256600,0.255900,0.255900,0.256000,0.256100,0.256200,0.256200,0.256200,0.256100,0.255300,0.255000,0.254700,0.254500,0.254400,0.254200,0.254100,0.253900,0.253800,0.253700,0.253500,0.253400,0.253200
0.553100,0.553200,1.000000,0.552700,0.552700,0.552500,0.552200,0.550400,0.550400,0.550400,0.551600,0.551600,0.551600,0.550000,0.550000,0.550400,0.550600,0.550600,0.550600,0.548800,0.547400,0.547400,0.547300,0.547300,0.545400,0.545300,0.545200,0.545200,0.543400,0.545500,0.545400,0.545300,0.545100,0.545100,0.542200,0.542200,0.542200,0.542100,1.000000,1.000000,0.541800,0.543100,0.543100,0.543100,0.543100,1.000000,1.000000,1.000000,0.538700,0.538700,0.539600,0.539600,0.539100,0.538300,0.538200,0.538200,0.536900,0.536900,0.536800,0.536700,1.000000,1.000000,1.000000,0.536600,0.536700,0.536800,0.535600,0.535600,0.535500,0.535400,0.535400,0.535300,0.533700,0.534100,0.534200,0.534200,0.534200,0.534200,0.534100,0.533500,0.532900,0.531800,0.530300,0.528400,0.528400,0.528400,0.529700,0.529600,0.528000,0.527900,0.527900,0.527900,0.527900,0.526400,0.526400,0.526400,0.527100,0.527100,0.526900,0.526600,0.526600,0.526800,0.526800,0.526700,0.526300,0.525700,0.525600,0.524800,0.524700,0.523500,0.523300,0.523000,0.523000,0.522900,0.521400,0.521300,0.521100,0.521000,0.521000,0.520900,0.521700,0.521800,0.521900,0.521900,0.521800,0.521000,0.520900,0.520900,1.000000,1.000000,0.477600,0.477600,0.477600,0.477400,0.477300,0.475300,0.475300,0.475300,0.476400,0.476400,0.476400,0.476400,0.474500,0.474300,0.473000,0.473000,0.473000,0.473100,0.473200,0.473300,0.473400,0.473300,0.472400,0.472100,0.472000,0.471800,0.471600,0.471200,0.469800,0.469700,0.469700,0.469700,0.469700,0.469700,1.000000,1.000000,0.267800,0.267700,0.267700,0.267600,0.267600,0.267500,0.267300,0.267200,0.266900,0.266200,0.266000,0.265900,0.265900,0.265800,0.265800,0.265800,0.265700,0.265600,0.265400,0.265300,0.264300,0.264100,0.263900,0.263800,0.263600,0.263500,0.263300,0.263100,0.263000,0.262800,0.262800,0.262600,0.262400,0.262300,0.262000,0.262000,0.261800,0.261600,0.261500,0.261300,0.261100,0.261000,0.260800,0.260700,0.260600,0.260400,0.260300,0.260100,0.260000,0.259900,0.259800,0.259700,0.259400,0.259200,0.259000,0.258800,0.258600,0.258400,0.258300,0.258300,0.258200,0.258000,0.257800,0.257500,0.257100,0.257000,0.256900,0.256800,0.256600,0.256200,0.256100,0.256100,0.256200,0.256300,0.256300,0.256200,0.256100,0.255200,0.255000,0.254600,0.254500,0.254400,0.254200,0.254100,0.253900,0.253800,0.253800,0.253600,0.253400,0.253200
0.554800,0.553300,0.553300,0.553200,0.553000,0.552800,0.552700,0.552200,0.550500,0.550500,0.551600,0.551600,0.551600,0.549900,0.549900,0.550000,0.550600,0.550600,1.000000,0.550600,0.548800,0.547400,0.547400,1.000000,0.547300,1.000000,0.545200,0.544200,0.543300,0.543600,0.545400,0.545400,0.545000,0.544900,0.544000,0.542200,0.542200,0.542200,0.541900,0.541900,0.541800,0.542500,0.542700,0.542900,0.543000,1.000000,1.000000,0.538600,0.538600,0.538600,0.539600,0.539700,0.539700,0.538400,0.538300,0.538200,0.537900,0.537000,0.537000,0.537000,1.000000,1.000000,1.000000,0.536600,0.536700,0.536600,0.535600,0.535600,0.535600,0.535700,0.535800,1.000000,0.534300,0.534200,0.534200,0.534300,0.534400,0.534300,0.534300,0.534100,0.534000,0.533000,0.532200,0.532100,0.530100,0.529900,0.529800,0.529600,0.529600,0.528000,0.528000,0.528000,0.528000,0.526400,0.526400,0.526400,0.527100,0.527100,0.526300,0.526300,0.526300,0.526900,0.526900,0.526300,0.526000,0.525100,0.524900,0.524800,0.524700,0.524600,0.523400,0.523200,0.523100,0.523000,0.521400,0.521400,0.521200,0.521100,0.521000,0.521000,0.521200,0.521900,0.521900,0.522000,0.521900,0.521700,0.521000,0.521000,0.521000,1.000000,0.478200,0.478100,0.477900,0.477700,0.477300,0.475400,0.475300,0.475400,0.476400,0.476400,0.476400,0.476400,0.474600,0.474500,0.473700,0.473200,0.473200,0.473200,0.473400,0.473500,0.473500,0.473500,0.472400,0.472100,0.472000,0.471900,0.471600,0.470500,0.469800,0.469700,0.469700,0.469700,1.000000,1.000000,1.000000,0.267800,0.267800,0.267700,0.267600,0.267500,0.267500,0.267400,0.267200,0.267000,0.266500,0.266200,0.266000,0.265800,0.265800,0.265700,0.265600,0.265600,0.265700,0.265600,0.265500,0.265300,0.264400,0.264300,0.263900,0.263800,0.263600,0.263500,0.263300,0.263200,0.263000,0.262800,0.262700,0.262500,0.262400,0.262300,0.262100,0.262000,0.261900,0.261600,0.261400,0.261200,0.261100,0.261000,0.260800,0.260700,0.260600,0.260400,0.260300,0.260100,0.260000,0.260000,0.259800,0.259800,0.259500,0.259300,0.259200,0.258900,0.258700,0.258500,0.258400,0.258300,0.258300,0.258100,0.257900,0.257500,0.257300,0.257100,0.257000,0.256900,0.256700,0.256500,0.256400,0.256300,0.256300,0.256300,0.256300,0.256300,0.255800,0.255200,0.255000,0.254600,0.254500,0.254400,0.254200,0.254100,0.254000,0.253900,0.253800,0.253600,0.253500,0.253000
0.555000,0.554600,0.553300,0.553200,0.553000,0.552800,0.552700,0.552600,0.550600,0.550500,0.551700,0.551700,0.551600,0.549900,0.548200,0.548100,0.548000,0.547900,0.548800,0.549500,0.549400,1.000000,1.000000,1.000000,0.548500,1.000000,0.545000,0.543300,0.543200,0.543300,0.544600,0.544800,0.544800,0.544800,0.544800,0.542600,0.542600,0.542700,0.542800,0.542700,0.542600,0.542600,0.542600,0.542600,0.542300,1.000000,1.000000,1.000000,1.000000,0.538600,0.539800,0.539800,1.000000,1.000000,1.000000,1.000000,0.537900,0.537600,0.537300,0.537300,1.000000,1.000000,1.000000,0.537200,0.537000,0.535800,0.535500,0.535600,0.535600,0.535800,0.535900,0.535800,0.535500,0.534300,0.534300,0.534300,0.534300,0.534300,0.534200,0.534100,0.534000,0.533500,0.532300,0.532100,0.531900,0.531700,0.530800,0.529600,0.529400,0.528100,0.528000,0.528000,0.528000,0.526400,0.526400,0.526400,0.527100,0.527100,0.526200,0.526200,0.526200,0.527000,0.527000,0.526300,0.525300,0.525100,0.525000,0.524900,0.524800,0.524800,0.524800,0.523300,0.523200,0.523200,0.523100,0.523000,0.522700,0.521600,0.521200,0.521200,0.521300,0.521900,0.522200,0.522200,0.522100,0.522100,0.521800,0.521000,0.521000,1.000000,0.478300,0.478300,0.478100,0.478000,0.477500,0.477200,0.477000,0.477200,0.478200,0.478200,0.476400,0.476400,0.475000,0.474800,0.474100,0.473600,0.473400,0.473400,0.473500,0.473500,0.473500,0.473500,0.473000,0.472200,0.472000,0.471900,0.471600,0.470500,0.469800,0.469700,0.469700,0.469700,0.469700,1.000000,0.268000,0.267800,0.267800,0.267700,0.267600,0.267500,0.267400,0.267300,0.267000,0.266800,0.266400,0.266200,0.265900,0.265800,0.265700,0.265600,0.265600,0.265600,0.265600,0.265700,0.265600,0.265100,0.264700,0.264600,0.264500,0.264400,0.263800,0.263700,0.263600,0.263500,0.263400,0.262800,0.262700,0.262500,0.262400,0.262400,0.262300,0.262200,0.262200,0.262200,0.262300,0.261200,0.261200,0.261000,0.260900,0.260800,0.260600,0.260400,0.260300,0.260200,0.260100,0.260000,0.259900,0.259800,0.259600,0.259400,0.259300,0.259000,0.258900,0.258600,0.258500,0.258400,0.258400,0.258300,0.258200,0.257700,0.257600,0.257400,0.257100,0.257000,0.256800,0.256600,0.256500,0.256400,0.256400,0.256300,0.256300,0.256200,0.255600,0.255200,0.255000,0.254700,0.254600,0.254400,0.254200,0.254200,0.254200,0.254200,0.254200,0.254100,0.254000,0.252800
0.554000,0.553900,0.553600,0.552500,0.552800,0.552800,0.552700,0.552600,0.552300,0.551900,0.551800,0.551800,0.551700,0.550000,0.548200,0.548100,0.547900,0.547600,0.547400,0.547300,1.000000,1.000000,0.548600,0.548500,0.547800,1.000000,1.000000,1.000000,1.000000,0.544600,0.544700,0.544700,0.544800,0.544800,0.544700,0.543900,0.542800,0.542800,0.542800,0.542800,0.542600,0.542600,0.542300,0.541200,0.539900,0.538400,1.000000,0.538400,1.000000,0.538600,0.539900,0.539900,0.540000,0.538700,0.538000,0.537900,0.537700,0.537600,0.537400,0.537400,1.000000,1.000000,0.537100,0.537300,0.537400,0.537400,0.535600,0.535600,0.536100,1.000000,0.536100,1.000000,0.535600,0.535500,0.534200,0.534200,0.534200,0.534200,0.534200,0.534000,0.533700,0.532800,0.532500,0.532200,0.531900,0.531800,0.531700,0.531200,0.531000,0.529100,0.528100,0.528100,0.528100,0.528200,0.528100,0.527000,0.527100,0.527100,0.526300,0.526300,0.526300,0.527100,0.527100,0.527000,0.525300,0.525100,0.525000,0.524900,0.524800,0.524800,0.524800,0.524800,0.524800,0.523200,0.523100,0.523100,0.522900,0.522800,0.522300,0.521200,0.521400,0.522200,0.522300,0.522400,0.522300,0.522100,0.521300,0.520900,0.520800,1.000000,0.478400,0.478300,0.478100,0.477200,0.477200,0.477200,0.477200,0.477600,0.478200,0.478200,0.477700,0.476600,0.475000,0.475000,0.474800,0.474800,0.474000,0.473600,0.473600,0.473800,0.474600,0.474400,0.474200,0.472600,0.472200,0.472000,0.471900,0.470600,0.470200,0.469800,0.469700,0.469700,0.469700,1.000000,0.268000,0.267900,0.267800,0.267800,0.267600,0.267500,0.267400,0.267300,0.267000,0.266800,0.266400,0.266300,0.266000,0.265800,0.265700,0.265600,0.265600,0.265600,0.265600,0.265700,0.265600,0.265200,0.264800,0.264700,0.264600,0.264500,0.264200,0.263900,0.263700,0.263600,0.263500,0.262800,0.262700,0.262600,0.262500,0.262400,0.262300,0.262300,0.262300,0.262300,0.262400,0.261200,0.261200,0.261100,0.261000,0.260800,0.260700,0.260400,0.260400,0.260200,0.260200,0.260200,0.260100,0.260000,0.259800,0.259700,0.259600,0.259400,0.259300,0.258800,0.258700,0.258600,0.258500,0.258400,0.258300,0.258100,0.257900,0.257800,0.257400,0.257300,0.256900,0.256800,0.256600,0.256400,0.256400,0.256300,0.256200,0.256100,0.255800,0.255400,0.255100,0.254900,0.254600,0.254400,0.254300,0.254200,0.254200,0.254200,0.254300,0.254300,0.254300,0.253500
0.554000,0.554000,0.552500,0.552400,0.552400,0.551600,0.551600,0.551600,0.551800,0.551900,1.000000,0.551800,0.551700,0.550200,0.548200,0.548100,0.547900,0.547500,0.547300,0.547300,0.546000,0.545900,0.545900,0.545900,0.545800,0.545500,0.544300,0.544400,0.544400,0.544800,0.544700,0.544700,0.544800,0.544700,0.544700,0.543900,0.543900,0.543800,0.543800,0.543000,0.542700,0.542600,0.542300,0.541100,0.539800,0.538500,0.538500,1.000000,0.537100,0.537100,1.000000,0.540200,0.540200,0.539100,0.539100,0.537800,0.537700,0.537600,0.537500,0.537500,1.000000,0.531400,0.536200,0.536200,0.537400,0.537400,0.536200,0.537200,0.537200,1.000000,0.536200,0.535600,0.535500,0.534200,0.534200,0.534200,0.534100,0.534000,0.533700,0.532600,0.532800,0.532700,0.532500,0.532200,0.531900,0.531800,0.531800,0.531400,0.531200,0.528600,0.528200,0.528200,0.528200,0.529400,0.529400,0.529200,0.528000,0.527900,0.526500,0.526500,0.526800,0.527200,0.527200,0.525300,0.525300,0.525200,0.525200,0.525100,0.525000,0.525000,0.524900,0.524900,0.524800,0.524800,0.523400,0.523300,0.523400,0.523700,0.523800,0.522900,0.522700,0.522600,0.522600,0.522600,0.522500,0.522400,0.520800,0.520600,1.000000,1.000000,0.478400,1.000000,0.477200,0.477200,0.477100,0.476600,0.476600,0.476900,0.478200,0.478200,0.476900,0.475600,0.474900,0.474900,0.474900,0.474900,0.474800,0.473900,0.474600,0.474600,0.474600,0.474400,0.474300,0.473000,0.472500,0.472100,0.472000,0.470700,0.470600,0.470600,0.470700,0.469700,0.469700,1.000000,0.268000,0.267900,0.267900,0.267800,0.267700,0.267600,0.267500,0.267400,0.267100,0.267000,0.266700,0.266600,0.266400,0.266000,0.265800,0.265700,0.265700,0.265700,0.265700,0.265700,0.265600,0.265600,0.264900,0.264800,0.264700,0.264500,0.264300,0.264100,0.263800,0.263600,0.263500,0.262900,0.262800,0.262600,0.262500,0.262500,0.262500,0.262500,0.262500,0.262600,0.262600,0.261300,0.261300,0.261200,0.261100,0.260800,0.260700,0.260500,0.260400,0.260300,0.260300,0.260200,0.260200,0.260200,0.260000,0.259800,0.259700,0.259600,0.259400,0.259000,0.258800,0.258800,0.258600,0.258600,0.258400,0.258100,0.258000,0.257800,0.257400,0.257300,0.257000,0.256800,0.256700,0.256500,0.256400,0.256200,0.256000,0.255900,0.255700,0.255500,0.255200,0.255100,0.255000,0.254700,0.254400,0.254400,0.254300,0.254300,0.254400,0.254400,0.254400,0.254400
0.554000,0.554000,0.554000,0.552400,0.552200,0.551600,0.551600,0.551600,0.551700,0.551900,1.000000,0.551800,0.551800,0.550200,0.548600,0.548100,0.547900,0.547500,0.547300,0.547300,0.546000,0.545900,0.545900,0.545900,0.545800,0.544200,1.000000,0.542500,0.544400,0.544600,0.544700,1.000000,0.544800,0.544700,0.544700,0.544000,0.543900,0.543900,0.544800,1.000000,0.542700,0.542600,0.542400,0.541000,0.539800,0.538500,0.538500,0.537100,1.000000,0.537000,0.540300,0.540400,0.540400,0.539800,0.537900,0.537900,0.537800,0.537700,0.539700,0.539100,0.534900,0.531400,0.535200,0.536200,0.537400,0.537400,0.537300,0.537300,0.537200,0.535800,0.535600,0.535500,0.535400,0.534100,0.534200,0.534200,0.534100,0.533900,0.532400,0.531000,0.532700,0.532700,0.532500,0.532200,0.532000,0.531900,0.531800,0.531700,0.531300,0.528400,0.528200,0.528200,0.529500,0.529500,0.529400,0.529200,0.529100,0.527800,0.526600,0.526600,0.527400,0.527300,0.527300,0.525300,0.525300,0.525200,0.525200,0.525200,0.525200,0.525200,0.525000,0.524900,0.524800,0.524800,0.524800,0.524800,0.524800,0.524700,0.524100,0.523800,0.523000,0.522800,0.522800,0.522700,0.522500,0.521200,0.520600,0.520600,0.520500,0.520500,0.478300,0.477200,0.477200,0.477000,0.476700,0.476600,0.476600,0.476700,0.477000,0.477000,0.475800,0.474600,0.474600,0.474800,0.474900,0.474900,0.474900,0.474900,0.474800,0.474600,0.474500,0.474300,0.474300,0.474100,0.472900,0.472100,0.472000,0.470700,0.470600,0.470600,0.470700,0.470800,0.469700,1.000000,0.268100,0.268000,0.268000,0.267900,0.267800,0.267800,0.267600,0.267400,0.267200,0.267100,0.267000,0.267000,0.266800,0.266600,0.266300,0.265800,0.265800,0.265800,0.265800,0.265800,0.265700,0.265600,0.265000,0.264900,0.264800,0.264600,0.264300,0.264100,0.263800,0.263600,0.263500,0.263000,0.262800,0.262600,0.262600,0.262500,0.262500,0.262600,0.262600,0.262700,0.262700,0.262600,0.261300,0.261300,0.261300,0.261100,0.260700,0.260600,0.260500,0.260400,0.260400,0.260300,0.260300,0.260300,0.260200,0.260100,0.260000,0.259800,0.259600,0.259100,0.259000,0.258900,0.258700,0.258600,0.258400,0.258100,0.258000,0.257800,0.257400,0.257300,0.257000,0.256900,0.256800,0.256600,0.256500,0.256100,0.255900,0.255800,0.255600,0.255500,0.255200,0.255200,0.255100,0.254800,0.254400,0.254400,0.254300,0.254300,0.254400,0.254400,0.254400,0.254400
0.554100,0.554100,0.554600,0.554600,0.554400,0.551800,0.551600,0.551600,0.551700,0.551800,0.551800,1.000000,0.551800,0.551800,0.551700,0.551600,0.548900,0.548900,0.548900,0.547200,1.000000,0.546000,0.545900,0.545900,0.545900,0.544100,0.542400,0.542400,0.543800,0.544500,0.544600,0.544800,0.544800,0.544700,0.544600,0.544100,0.544000,0.543900,0.543900,0.542700,0.542600,0.542500,0.542100,0.540900,0.539800,0.539800,1.000000,0.537100,0.537100,0.538700,0.538800,0.540400,0.540400,0.539800,0.538000,1.000000,0.537900,0.540800,0.540800,0.539100,0.532700,0.530200,1.000000,0.536200,0.537400,0.537400,0.537300,0.537300,0.535800,0.535700,0.535600,0.535500,0.535400,0.534100,0.534100,0.534200,0.534200,0.533900,0.532400,0.531000,0.531000,0.532600,0.532700,0.532900,0.532100,0.532000,0.532000,0.531900,0.531900,0.528400,0.528400,0.528300,0.529600,0.529500,0.529400,0.529200,0.529000,0.527800,0.526600,0.526700,0.527500,0.527500,0.527500,0.525300,0.525300,0.525300,0.525300,0.525400,0.525400,0.525400,0.525200,0.524800,0.524800,0.524800,0.524800,0.524800,0.524800,0.525500,0.525500,0.523800,0.523700,0.522900,0.522800,0.522300,0.521000,0.520900,0.520700,0.520600,0.520500,0.520500,1.000000,0.478800,0.477000,0.476800,0.476600,0.476600,0.476600,0.476700,0.477000,0.477000,0.474600,0.474600,0.474600,0.474700,0.474900,0.475000,0.475100,0.475000,0.475000,0.474600,0.474400,0.474300,0.474200,0.474000,0.473600,0.473200,0.472000,0.470700,0.470700,0.470800,0.470900,0.471000,0.471100,1.000000,1.000000,0.268200,0.268200,0.268100,0.267900,0.267800,0.267600,0.267500,0.267300,0.267200,0.267100,0.267000,0.266800,0.266600,0.266500,0.266000,0.265900,0.265900,0.265900,0.265800,0.265700,0.265600,0.265200,0.264900,0.264800,0.264500,0.264300,0.264000,0.263700,0.263600,0.263400,0.263100,0.262900,0.262600,0.262600,0.262600,0.262600,0.262700,0.262800,0.262800,0.262800,0.262700,0.262500,0.262200,0.262000,0.261800,0.260800,0.260700,0.260700,0.260600,0.260500,0.260500,0.260400,0.260400,0.260300,0.260200,0.260100,0.259900,0.259800,0.259300,0.259100,0.259000,0.258700,0.258600,0.258400,0.258300,0.258000,0.257800,0.257400,0.257300,0.257100,0.257000,0.257000,0.256800,0.256700,0.255800,0.255800,0.255700,0.255500,0.255400,0.255300,0.255200,0.255200,0.255000,0.254600,0.254300,0.254200,0.254200,0.254200,0.254200,0.254300,0.253800
0.554200,0.554200,0.554600,0.554700,0.554700,0.553900,0.553600,0.553000,0.551700,0.551600,0.551700,0.551700,0.551800,0.551800,0.552500,0.552700,0.551900,0.548900,0.548900,0.547200,0.547200,0.548100,0.548100,0.546200,0.546000,0.545800,0.543800,0.543800,0.544300,0.544400,0.544600,1.000000,0.544800,0.544700,0.544600,0.544500,1.000000,0.542700,0.542700,0.542600,0.542600,0.542500,0.541600,0.540900,0.539800,1.000000,1.000000,0.538700,0.538700,1.000000,0.539800,0.540400,0.540000,0.539800,0.539800,1.000000,0.540800,0.540800,0.540900,0.536300,0.532200,0.530200,0.531800,0.536200,0.537400,0.537400,0.537300,0.535900,0.535800,0.535700,0.535600,0.535400,0.534100,0.534100,0.534100,0.534100,0.534400,0.534000,0.533700,0.531000,0.531000,0.532600,0.532700,0.533100,0.532800,0.532000,0.532000,0.531900,0.531900,0.529700,0.529700,0.529700,0.529700,0.529600,0.529400,1.000000,0.529000,0.529000,0.527800,0.527700,0.527700,0.527600,0.527600,0.527700,0.526600,0.525600,0.525500,0.525600,0.525600,0.525600,0.525600,0.524800,0.524800,0.524800,0.524800,0.524900,0.525700,0.525600,0.525600,0.525400,0.523900,0.523100,0.522100,0.522000,0.521000,0.520900,0.520700,0.520600,0.520500,0.520800,1.000000,0.478800,0.477400,0.476700,0.476600,0.476500,0.476500,0.477100,0.477000,0.476100,0.474600,0.474500,0.474500,0.474600,0.474900,0.475200,0.475200,0.475100,0.475000,0.474200,0.474100,0.474000,0.473800,0.473600,0.473600,0.473500,0.472000,0.470700,0.470800,0.470800,0.471000,0.471100,0.471300,1.000000,0.268900,0.268600,0.268500,0.268400,0.268100,0.267900,0.267600,0.267500,0.267400,0.267300,0.267100,0.267000,0.266700,0.266600,0.266500,0.266300,0.266200,0.266000,0.266000,0.265900,0.265800,0.265600,0.265400,0.265200,0.264900,0.264400,0.264300,0.264000,0.263700,0.263600,0.263500,0.263300,0.263200,0.262800,0.262700,0.262700,0.262800,0.262800,0.262800,0.262800,0.262700,0.262600,0.262500,0.262200,0.262100,0.262000,0.261000,0.260800,0.260800,0.260700,0.260600,0.260500,0.260300,0.260200,0.260100,0.260000,0.260000,0.259800,0.259700,0.259300,0.259100,0.258900,0.258700,0.258600,0.258400,0.258300,0.258200,0.257800,0.257400,0.257300,0.257200,0.257200,0.257100,0.257000,0.256900,0.255800,0.255700,0.255700,0.255500,0.255400,0.255300,0.255300,0.255300,0.255300,0.255200,0.254300,0.254200,0.254200,0.254200,0.254200,0.254100,0.253900
0.554300,0.554300,0.554600,0.554700,0.554800,0.554800,0.554000,0.553500,0.552200,0.551400,0.551400,0.551600,0.551800,0.552500,0.552600,0.552700,1.000000,1.000000,0.547400,0.547200,0.550000,0.550000,0.550000,0.548900,0.548400,0.546300,0.544100,0.544100,0.544400,0.546200,0.546900,0.547000,0.545900,0.544700,0.544600,0.544500,1.000000,0.542600,0.542600,0.542600,0.542500,0.542300,0.541900,0.541800,0.540400,1.000000,1.000000,0.537000,0.537500,0.539700,0.539800,0.539800,0.539800,0.539800,1.000000,1.000000,0.540800,0.540900,0.540900,0.536300,0.532000,0.530200,0.531800,0.537600,0.537600,0.537600,0.537400,0.535900,0.535800,0.535700,0.535600,0.535100,0.534100,0.534100,0.534100,0.534100,0.534900,0.534800,0.534300,0.533500,0.532500,0.533100,0.533500,0.533500,0.533400,0.532000,0.532000,0.531900,0.531900,0.529700,0.529800,0.529800,0.529800,0.529700,0.529200,0.529100,0.529000,0.527800,0.527800,0.527700,0.527700,0.527700,0.527700,0.527700,0.527800,0.526500,0.526400,0.525800,0.525700,0.525800,0.525800,0.525800,0.524800,0.524800,0.524800,0.525600,0.525800,0.525700,0.524200,0.523900,0.523800,0.522300,0.522200,0.522200,0.522100,0.522100,0.522000,0.522000,0.521900,0.521900,1.000000,0.478700,0.478600,0.478000,0.478000,0.477900,0.477800,0.477500,0.477200,0.476300,0.476000,0.475900,0.475800,0.475700,0.475500,0.475400,0.475400,0.475200,0.475000,0.474100,0.474000,0.473900,0.473700,0.473600,0.473600,0.473500,0.472200,0.472000,0.471900,0.472200,0.471600,0.471500,0.470600,1.000000,0.268800,0.268700,0.268600,0.268500,0.268300,0.268000,0.267700,0.267600,0.267500,0.267300,0.267100,0.266900,0.266600,0.266600,0.266500,0.266300,0.266300,0.266100,0.266000,0.266000,0.265800,0.265700,0.265400,0.265300,0.265000,0.264300,0.264200,0.264000,0.263800,0.263600,0.263600,0.263400,0.263300,0.263200,0.263100,0.263000,0.262900,0.262900,0.262800,0.262700,0.262600,0.262500,0.262400,0.262300,0.262100,0.262000,0.261500,0.261300,0.261000,0.260900,0.260800,0.260600,0.260200,0.260100,0.260000,0.260000,0.259900,0.259800,0.259700,0.259200,0.259000,0.258900,0.258600,0.258600,0.258400,0.258400,0.258300,0.258200,0.257800,0.257600,0.257400,0.257300,0.257200,0.257100,0.256000,0.255800,0.255700,0.255700,0.255500,0.255400,0.255400,0.255400,0.255400,0.255400,0.255300,0.254600,0.254200,0.254200,0.254100,0.254100,0.254100,0.254000
0.554300,0.554300,0.554300,0.554300,0.554800,0.554800,0.554600,0.553500,0.552200,0.551300,0.551200,0.551200,0.551100,0.552300,0.552600,0.552700,0.552800,0.552800,1.000000,1.000000,0.550000,0.551600,0.551600,0.551600,0.548900,0.548800,0.548800,1.000000,1.000000,0.546400,0.546900,0.547000,0.545900,0.545900,0.545500,0.545100,0.542600,0.542600,0.542600,0.542600,0.542600,0.542400,0.542000,0.542000,0.542000,0.541600,0.535900,0.535900,0.537300,0.539800,0.539800,0.539800,0.539800,0.539800,0.540700,0.540800,0.540800,0.540900,0.541000,0.536300,0.531900,0.531900,0.531900,0.537600,0.537600,0.537600,0.537500,0.537300,0.535800,0.535700,0.535700,0.534900,0.534900,0.534100,0.534100,0.535000,0.535000,0.534700,0.533300,0.533300,0.533500,0.533600,0.533600,0.533500,0.533500,0.532000,0.532000,0.532000,0.532000,0.529800,0.529800,0.529800,0.530000,0.529900,0.529900,0.529100,0.529000,0.527800,0.527800,0.527800,0.527800,0.527800,0.527800,0.527800,0.527800,0.527800,0.526500,0.526400,0.526300,0.526200,0.526000,0.526000,0.525800,0.525800,0.525800,0.525800,0.525800,0.524000,0.523900,0.523700,0.523400,0.522300,0.522200,0.522200,0.522100,0.522100,0.522000,0.522000,0.522000,0.522000,0.478500,0.478400,0.478300,0.478100,0.478000,0.477900,0.477900,0.477900,0.477800,0.477000,0.476300,0.476300,0.476600,0.476500,0.475600,0.475500,0.475400,0.475200,0.475000,0.474100,0.473900,0.473800,0.473700,0.473500,0.473500,0.473000,0.472400,0.472400,0.472400,0.472400,0.472100,0.470600,0.470600,1.000000,0.268800,0.268700,0.268600,0.268600,0.268400,0.268300,0.267900,0.267800,0.267600,0.267400,0.267000,0.266900,0.266700,0.266700,0.266600,0.266600,0.266500,0.266200,0.266100,0.266000,0.265800,0.265700,0.265500,0.265400,0.265300,0.264200,0.264200,0.264000,0.263900,0.263900,0.263700,0.263600,0.263500,0.263300,0.263200,0.263200,0.263000,0.262900,0.262600,0.262600,0.262500,0.262400,0.262400,0.262200,0.262100,0.261900,0.261600,0.261400,0.261200,0.261000,0.260900,0.260100,0.260000,0.259900,0.259800,0.259800,0.259800,0.259700,0.259600,0.259300,0.259000,0.258900,0.258600,0.258600,0.258400,0.258400,0.258300,0.258200,0.258100,0.257900,0.257600,0.257500,0.257300,0.257200,0.256100,0.255800,0.255800,0.255700,0.255600,0.255600,0.255600,0.255600,0.255600,0.255500,0.255400,0.255100,0.254800,0.254400,0.254200,0.254100,0.254100,0.254100
0.554300,0.554300,0.554200,0.554300,0.554900,0.554900,0.554800,0.554400,0.553300,0.551300,0.551200,0.551200,0.551100,0.551000,0.551900,1.000000,1.000000,1.000000,1.000000,1.000000,1.000000,0.551600,0.551600,0.551600,0.550200,0.548900,0.548800,1.000000,0.545500,0.545600,0.545600,0.547000,0.545800,0.545600,0.545200,0.544500,0.542600,0.542600,0.542600,0.542700,0.542700,0.542700,0.542500,0.543000,0.543000,0.536900,0.535900,0.535900,0.537300,0.539800,0.539800,0.541000,0.540900,0.540700,0.540700,0.540800,0.540800,0.541000,0.541000,0.537600,0.531900,0.531900,0.531900,0.536200,0.537700,0.537700,0.537800,0.537500,0.536800,0.535800,0.535700,0.534900,0.534900,1.000000,0.535100,0.535100,0.535000,0.533100,0.532800,0.531800,0.533400,0.533600,0.533600,0.533600,0.533500,0.532100,0.532100,0.532100,0.532000,0.529800,0.529900,0.529900,0.531200,0.531300,0.530100,0.529100,0.529100,0.529000,0.527800,0.527800,0.527800,0.527900,0.527900,0.527900,0.527900,0.527800,0.526500,0.526400,0.526300,0.526200,0.526100,0.526000,0.525900,0.525800,0.525800,0.525800,0.524600,0.524000,0.523900,0.523400,0.523200,0.522400,0.522300,0.522300,0.522200,0.522100,0.522000,0.522000,0.522000,0.522000,0.478500,0.478300,0.478300,0.478100,0.478100,0.478000,0.478000,0.478000,0.478000,0.478000,0.477800,0.477700,0.477400,0.477100,0.475800,0.475600,0.475500,0.475200,0.475000,0.474600,0.474100,0.473800,0.473700,0.473500,0.473500,0.473000,0.472500,0.472600,0.472600,0.472500,0.471600,0.470500,0.470500,1.000000,0.268700,0.268600,0.268600,0.268600,0.268400,0.268300,0.268000,0.267900,0.267700,0.267400,0.267300,0.267000,0.266800,0.266800,0.266900,0.267100,0.267200,0.266200,0.266100,0.266000,0.265900,0.265800,0.265500,0.265400,0.265400,0.264300,0.264200,0.264000,0.264000,0.263900,0.263700,0.263600,0.263500,0.263400,0.263300,0.263300,0.263100,0.263000,0.262600,0.262600,0.262500,0.262400,0.262400,0.262200,0.262100,0.261900,0.261600,0.261500,0.261300,0.261200,0.260900,0.260000,0.259900,0.259800,0.259800,0.259800,0.259800,0.259700,0.259700,0.259400,0.259200,0.259000,0.258600,0.258600,0.258400,0.258400,0.258400,0.258200,0.258100,0.257900,0.257800,0.257600,0.257400,0.257200,0.256100,0.255900,0.255800,0.255800,0.255700,0.256000,0.255700,0.255700,0.255600,0.255500,0.255400,0.255100,0.254900,0.254700,0.254300,0.254200,0.254200,0.254100
