0.545800,0.545800,0.547200,0.547200,1.000000,0.545900,0.545900,1.000000,1.000000,1.000000,1.000000,0.543600,1.000000,1.000000,1.000000,1.000000,1.000000,1.000000,1.000000,1.000000,1.000000,1.000000,1.000000,1.000000,1.000000,1.000000,0.540700,0.541500,0.541700,0.541800,0.541800,1.000000,1.000000,0.540000,0.540000,0.539900,0.539900,1.000000,1.000000,1.000000,0.539700,0.539700,0.539700,0.539600,0.539400,0.538200,0.537200,0.537200,0.537200,0.538100,1.000000,0.538300,0.538400,1.000000,1.000000,1.000000,0.537000,0.537200,0.537400,0.537500,1.000000,1.000000,0.535900,0.535900,0.536300,0.536400,0.536500,0.536400,0.534100,0.532700,0.532800,0.532800,0.535500,1.000000,0.537000,0.534600,0.533200,0.533200,0.533100,0.533000,0.532900,0.532900,0.533000,0.533000,0.533000,0.532900,0.531000,0.531200,0.532200,0.533800,0.532200,0.532200,0.532300,0.532400,0.532600,0.532400,0.531200,0.530400,0.530400,0.531400,0.531600,0.531700,0.531800,0.531900,0.531900,1.000000,0.488100,0.487600,0.487500,0.487400,0.487400,1.000000,1.000000,1.000000,1.000000,1.000000,1.000000,1.000000,1.000000,1.000000,1.000000,1.000000,1.000000,1.000000,1.000000,1.000000,1.000000,1.000000,1.000000,1.000000,1.000000,1.000000,1.000000,1.000000,1.000000,1.000000,1.000000,1.000000,0.283100,0.283000,0.283000,0.282900,0.282800,0.282800,0.282700,0.282600,0.282600,0.282500,0.282500,0.282400,0.282400,0.283700,0.283800,0.282400,0.281400,0.281400,0.281300,0.281300,0.281200,0.280900,0.280500,0.280400,0.280200,0.280200,0.280100,0.280100,0.280100,0.280000,0.280000,0.280000,0.278600,0.278500,0.278400,0.278200,0.278200,0.278100,0.278100,0.278000,0.277900,0.277800,0.277200,0.277100,0.276800,0.276700,0.276700,0.276600,0.276600,0.276600,0.276300,0.276200,0.275900,0.275700,0.275300,0.275100,0.274900,0.274800,0.274600,0.274500,0.274500,1.000000,1.000000,1.000000,1.000000,1.000000,0.516300,0.516300,0.516300,0.516900,1.000000,1.000000,1.000000,1.000000,1.000000,1.000000,1.000000,1.000000,0.438300,0.438300,1.000000,1.000000,1.000000,1.000000,1.000000,1.000000,1.000000,1.000000,1.000000,1.000000,1.000000,1.000000,1.000000,1.000000,1.000000,1.000000,1.000000,1.000000,1.000000,1.000000,1.000000,1.000000,1.000000,1.000000,1.000000,1.000000,1.000000,1.000000,1.000000,1.000000,1.000000,1.000000,1.000000,1.000000,0.467300,0.467400,0.466400,0.467400
1.000000,1.000000,0.547100,1.000000,0.545900,0.545900,0.545900,0.545900,0.545900,1.000000,1.000000,1.000000,0.543600,1.000000,0.544000,1.000000,0.544600,0.544600,1.000000,1.000000,1.000000,1.000000,1.000000,1.000000,1.000000,1.000000,1.000000,0.541800,0.541800,0.541900,0.541900,0.540200,0.540100,0.540000,0.540000,0.539800,0.538600,0.538600,1.000000,1.000000,0.539600,0.539600,0.539600,1.000000,1.000000,0.538400,0.537200,0.537200,0.537300,0.538100,1.000000,0.538400,1.000000,1.000000,1.000000,1.000000,1.000000,1.000000,0.536500,0.536700,1.000000,0.537400,1.000000,0.535800,0.536400,0.536500,0.537600,0.537600,0.536800,0.534300,0.532900,0.532900,0.533600,0.536600,0.536700,0.536700,0.534600,0.533200,0.533100,0.533000,0.532900,0.532900,0.532900,0.533000,0.533000,0.532900,0.532900,0.532900,0.533000,0.533900,0.533800,0.532300,0.532300,0.532500,0.532700,0.532600,0.531300,0.531300,0.531300,0.531300,0.531300,0.531500,0.531700,0.531800,0.531900,1.000000,1.000000,0.488400,0.488300,0.487400,0.487400,1.000000,1.000000,1.000000,1.000000,1.000000,1.000000,1.000000,1.000000,1.000000,1.000000,1.000000,1.000000,1.000000,1.000000,1.000000,1.000000,1.000000,1.000000,1.000000,1.000000,1.000000,0.284500,1.000000,1.000000,1.000000,1.000000,0.284100,0.283200,0.283100,0.283000,0.282900,0.282800,0.282800,0.282700,0.282600,0.282500,0.282400,0.282300,0.282300,0.282200,0.282200,0.282200,0.282200,0.281700,0.281300,0.281300,0.281200,0.281100,0.280800,0.280500,0.280400,0.280200,0.280100,0.280000,0.280000,0.280000,0.280000,0.280000,0.278800,0.278600,0.278500,0.278400,0.278300,0.278200,0.278200,0.278100,0.278100,0.278000,0.277900,0.277400,0.277300,0.277200,0.277000,0.276800,0.276800,0.276700,0.276700,0.276400,0.276200,0.275900,0.275600,0.275400,0.275200,0.275100,0.275000,0.274900,0.274900,0.276100,1.000000,1.000000,1.000000,1.000000,0.514900,0.514900,0.514900,0.514900,0.514900,0.514900,1.000000,0.513600,1.000000,1.000000,1.000000,1.000000,1.000000,1.000000,1.000000,1.000000,1.000000,1.000000,1.000000,1.000000,1.000000,1.000000,1.000000,1.000000,1.000000,1.000000,1.000000,1.000000,1.000000,1.000000,1.000000,1.000000,1.000000,1.000000,1.000000,1.000000,1.000000,1.000000,1.000000,1.000000,1.000000,1.000000,1.000000,1.000000,1.000000,1.000000,1.000000,1.000000,1.000000,1.000000,0.466300,0.465200,0.465100
1.000000,1.000000,1.000000,0.547100,0.545900,0.545900,0.545900,0.545900,0.544600,0.543400,0.543400,1.000000,0.543600,0.543800,0.544000,0.544200,0.544400,0.544500,1.000000,1.000000,1.000000,1.000000,1.000000,1.000000,1.000000,1.000000,1.000000,0.541800,0.541900,0.541900,0.541900,0.540200,0.540100,0.540000,0.540000,0.539800,0.538600,1.000000,1.000000,1.000000,0.539600,0.539600,0.542500,0.542400,0.542100,0.539800,0.538200,0.538000,0.538000,0.538100,1.000000,1.000000,1.000000,1.000000,1.000000,1.000000,1.000000,1.000000,0.535300,0.536700,0.537400,1.000000,1.000000,0.535700,0.536600,0.536600,0.537700,0.537600,0.537600,0.534700,0.534700,0.533800,0.533600,0.536600,0.536600,0.536700,0.534800,0.533200,0.533300,0.533800,0.534000,0.532900,0.532900,0.534500,0.534600,0.532900,0.532900,0.532900,0.534000,0.533900,0.533800,0.533800,0.532400,0.532600,0.532800,0.532700,0.531400,0.531300,0.531300,0.531300,0.531300,0.531300,0.531600,0.531800,0.531800,1.000000,1.000000,0.488400,0.488400,0.488400,0.487400,1.000000,1.000000,1.000000,1.000000,1.000000,1.000000,1.000000,1.000000,1.000000,1.000000,1.000000,1.000000,1.000000,1.000000,1.000000,1.000000,1.000000,1.000000,1.000000,0.284400,0.284400,0.284400,0.284600,0.284700,0.284700,0.284800,0.284600,0.283200,0.283100,0.283000,0.282900,0.282800,0.282800,0.282700,0.282600,0.282500,0.282400,0.282300,0.282200,0.282200,0.282100,0.282100,0.281800,0.281400,0.281300,0.281300,0.281200,0.281100,0.280700,0.280500,0.280400,0.280100,0.280100,0.280000,0.280000,0.279900,0.279900,0.279800,0.278800,0.278700,0.278600,0.278400,0.278400,0.278200,0.278200,0.278200,0.278100,0.278000,0.278000,0.277400,0.277400,0.277200,0.277100,0.277000,0.276800,0.276800,0.276800,0.276700,0.276400,0.275800,0.275600,0.275400,0.275300,0.275200,0.275200,0.275300,0.276100,0.276100,1.000000,1.000000,1.000000,1.000000,0.514900,0.514900,0.514900,0.514900,0.514900,0.514900,1.000000,0.513500,1.000000,1.000000,1.000000,1.000000,1.000000,1.000000,0.438300,1.000000,1.000000,1.000000,1.000000,1.000000,1.000000,1.000000,1.000000,1.000000,1.000000,1.000000,1.000000,1.000000,1.000000,1.000000,1.000000,1.000000,1.000000,1.000000,1.000000,1.000000,1.000000,1.000000,1.000000,1.000000,1.000000,1.000000,1.000000,1.000000,1.000000,1.000000,1.000000,1.000000,1.000000,1.000000,0.465200,0.465200,0.465100
1.000000,1.000000,1.000000,1.000000,1.000000,0.545900,0.545900,0.544600,0.543300,0.543400,0.543500,1.000000,0.543600,1.000000,0.542500,0.542500,0.544400,0.544500,0.546400,0.546500,1.000000,1.000000,1.000000,1.000000,1.000000,1.000000,1.000000,0.545900,0.543400,0.543300,0.542000,1.000000,0.545200,0.544100,0.542000,0.540100,1.000000,1.000000,1.000000,1.000000,0.539500,0.541300,0.542600,0.542900,0.542200,0.540100,0.540100,0.540200,0.540300,0.540500,0.540600,0.539600,0.538400,0.535300,0.534700,0.535200,0.535200,0.535200,0.535300,0.536600,0.538600,0.538600,0.538500,0.536600,0.536600,0.536600,0.536700,0.537600,0.537600,0.537500,1.000000,1.000000,0.536400,0.536600,0.536600,0.536600,0.536600,0.535500,0.534200,0.534000,0.534000,0.534100,0.534200,0.534500,0.534600,0.534500,0.534400,0.534200,0.534100,0.533900,0.533800,0.533800,0.534600,0.534400,0.534400,0.532800,0.532800,0.531400,0.531300,0.531200,0.531000,0.530900,0.530900,0.531700,0.531700,1.000000,1.000000,1.000000,0.488600,0.488400,0.488300,1.000000,1.000000,1.000000,1.000000,1.000000,1.000000,1.000000,1.000000,0.286400,0.285400,1.000000,1.000000,1.000000,1.000000,1.000000,0.285400,0.285200,0.285200,0.285100,0.284400,0.284400,0.284400,0.284500,0.284500,0.284600,0.284600,0.284600,0.283300,0.283200,0.283100,0.283000,0.282900,0.282800,0.282800,0.282700,0.282500,0.282400,0.282200,0.282100,0.282100,0.282000,0.281900,0.281500,0.281400,0.281400,0.281300,0.281200,0.281100,0.280700,0.280500,0.280400,0.280100,0.280100,0.279900,0.279900,0.279900,0.279800,0.279800,0.279200,0.279100,0.278800,0.278400,0.278400,0.278300,0.278200,0.278200,0.278200,0.278100,0.278000,0.277500,0.277400,0.277300,0.277200,0.277100,0.276900,0.276900,0.276900,0.276900,0.276900,0.275800,0.275700,0.275500,0.275400,0.275300,0.275800,0.276100,0.276200,0.276200,0.276100,1.000000,1.000000,0.514900,1.000000,0.514900,1.000000,0.514900,1.000000,0.514800,0.513500,1.000000,1.000000,1.000000,1.000000,1.000000,1.000000,1.000000,1.000000,1.000000,1.000000,1.000000,1.000000,1.000000,1.000000,1.000000,1.000000,1.000000,1.000000,1.000000,1.000000,1.000000,1.000000,1.000000,1.000000,1.000000,1.000000,1.000000,1.000000,1.000000,1.000000,1.000000,1.000000,1.000000,1.000000,1.000000,1.000000,1.000000,1.000000,1.000000,1.000000,1.000000,1.000000,1.000000,0.465200,0.465200,0.465200
1.000000,1.000000,1.000000,1.000000,1.000000,0.546000,0.546000,0.543300,0.543300,0.543300,0.543400,0.543600,0.543600,1.000000,0.541400,0.541400,0.542400,0.544400,0.546500,0.546500,0.546600,0.545500,0.545500,1.000000,1.000000,1.000000,0.545900,0.545900,0.545100,0.545800,1.000000,1.000000,1.000000,1.000000,1.000000,1.000000,0.542200,1.000000,1.000000,1.000000,0.539400,0.541300,0.542600,0.543200,0.543200,0.540100,0.540100,0.541800,0.541800,0.541700,0.540600,0.540500,0.540200,0.538200,0.536300,0.535200,0.535200,0.536100,0.536600,0.538700,0.538600,0.538500,1.000000,0.538500,0.536700,0.536700,0.536700,0.537500,0.537400,0.537200,0.537100,0.537000,0.536700,0.536600,0.536600,0.536600,0.536600,0.535600,0.535600,0.534100,0.534100,0.534100,0.534200,0.534400,0.534600,0.534500,0.534400,0.534300,0.533400,0.533400,0.533600,0.533700,0.535700,0.535400,0.534200,0.532800,0.532800,0.532800,0.531300,0.531200,0.531000,0.530900,0.530900,0.531600,0.531600,1.000000,1.000000,1.000000,0.489200,0.488600,0.488500,0.488400,1.000000,1.000000,1.000000,1.000000,1.000000,1.000000,0.286800,0.286300,0.285400,0.285400,0.285400,0.285500,1.000000,0.285500,0.285400,0.285200,0.285200,0.284900,0.284500,0.284400,0.284400,0.284400,0.284400,0.284300,0.284400,0.283700,0.283300,0.283200,0.283100,0.283000,0.283000,0.282800,0.282800,0.282700,0.282600,0.282400,0.282100,0.282000,0.282000,0.281800,0.281700,0.281500,0.281400,0.281400,0.281300,0.281300,0.281200,0.280800,0.280600,0.280400,0.280200,0.280100,0.280000,0.279900,0.279900,0.279900,0.279800,0.279500,0.279300,0.279200,0.279000,0.278400,0.278400,0.278300,0.278300,0.278200,0.278200,0.278100,0.277800,0.277600,0.277400,0.277200,0.277200,0.277100,0.277000,0.277100,0.277100,0.277200,0.275900,0.275700,0.275700,0.275700,0.275800,0.276200,0.276200,0.276200,0.276200,0.276200,1.000000,1.000000,0.515700,1.000000,0.514900,0.514900,0.514900,0.514800,1.000000,0.513500,0.513400,1.000000,1.000000,1.000000,1.000000,1.000000,1.000000,1.000000,1.000000,1.000000,1.000000,1.000000,1.000000,1.000000,1.000000,1.000000,1.000000,1.000000,1.000000,1.000000,1.000000,1.000000,1.000000,1.000000,1.000000,1.000000,1.000000,1.000000,1.000000,1.000000,1.000000,1.000000,1.000000,1.000000,1.000000,1.000000,1.000000,1.000000,1.000000,1.000000,1.000000,1.000000,0.467700,0.467700,0.467700,0.468600
1.000000,1.000000,1.000000,1.000000,1.000000,1.000000,1.000000,1.000000,1.000000,1.000000,1.000000,1.000000,0.545300,1.000000,0.545400,1.000000,0.543700,0.545700,0.546500,0.546500,0.546600,0.546600,0.545500,1.000000,1.000000,1.000000,0.545900,0.545900,0.545900,1.000000,0.544300,1.000000,0.543700,0.543900,0.544200,0.544300,0.544500,0.542200,1.000000,1.000000,1.000000,0.541300,0.542200,0.542200,0.542200,0.539800,0.538800,0.539300,0.540500,0.540500,0.540600,0.540500,0.540400,0.538200,0.538200,0.536300,0.535900,0.536500,0.538600,0.538600,0.538500,0.538400,0.538400,1.000000,1.000000,0.536700,0.536700,0.536700,0.537200,0.537100,0.537100,0.537900,0.537900,0.536700,0.536600,0.536600,0.535600,0.535600,0.535600,0.535600,0.534200,0.534200,0.533600,0.533600,0.534500,0.534500,0.534400,0.534400,0.533200,0.533200,0.533300,0.535700,0.535700,0.535600,0.533300,0.532900,0.532900,0.532800,0.532800,0.531400,0.530900,0.530900,0.530800,0.531600,0.531600,0.531700,1.000000,0.490700,0.490600,0.489500,0.489800,0.488300,1.000000,1.000000,1.000000,1.000000,1.000000,0.287100,0.287000,0.286200,0.285400,0.285400,0.285400,0.285500,0.285600,0.285600,0.285400,0.285200,0.285000,0.284800,0.284600,0.284500,0.284400,0.284400,0.284300,0.284200,0.284000,0.283500,0.283400,0.283200,0.283200,0.283100,0.283100,0.283000,0.282900,0.282800,0.282700,0.282600,0.282100,0.282000,0.281900,0.281800,0.281700,0.281600,0.281500,0.281400,0.281400,0.281300,0.281200,0.281000,0.280800,0.280700,0.280400,0.280300,0.280100,0.280000,0.280000,0.280000,0.279900,0.279600,0.279400,0.279300,0.279200,0.279000,0.278400,0.278400,0.278300,0.278300,0.278200,0.278100,0.277900,0.277600,0.277500,0.277200,0.277200,0.277100,0.277100,0.277200,0.277400,0.277300,0.276100,0.275800,0.275800,0.275800,0.276100,0.276200,0.276200,0.276200,0.275000,0.275000,1.000000,1.000000,1.000000,1.000000,0.515700,1.000000,0.515500,1.000000,1.000000,1.000000,1.000000,1.000000,1.000000,1.000000,1.000000,1.000000,1.000000,1.000000,1.000000,1.000000,1.000000,1.000000,1.000000,1.000000,1.000000,1.000000,1.000000,1.000000,1.000000,1.000000,1.000000,1.000000,1.000000,1.000000,1.000000,1.000000,1.000000,1.000000,1.000000,1.000000,1.000000,1.000000,1.000000,1.000000,1.000000,1.000000,1.000000,1.000000,1.000000,1.000000,1.000000,1.000000,0.467700,0.467700,0.467700,0.467700
1.000000,1.000000,1.000000,0.541700,1.000000,0.541700,0.545800,1.000000,1.000000,1.000000,1.000000,1.000000,1.000000,1.000000,0.545500,1.000000,1.000000,1.000000,1.000000,1.000000,1.000000,0.548100,0.546600,1.000000,1.000000,1.000000,0.545900,1.000000,1.000000,1.000000,0.543500,1.000000,0.543600,0.543800,0.544200,0.544400,0.544500,1.000000,1.000000,1.000000,1.000000,1.000000,0.542200,0.542200,0.540300,0.539000,0.539000,0.538900,0.539200,0.540500,0.540500,0.540500,0.540500,0.540400,0.538300,0.538300,0.538300,0.538400,0.538500,0.538000,0.538000,0.538300,1.000000,1.000000,0.536800,0.536700,0.536700,0.536500,0.536200,0.536100,0.536100,0.537200,1.000000,0.537800,0.536200,0.535600,0.535600,0.535500,0.535500,0.534400,0.533500,0.533500,0.533500,0.533500,0.533500,0.533500,0.534400,0.533200,0.533100,0.533100,0.533200,0.535000,0.535700,0.533200,0.533100,0.533000,0.532900,0.532900,0.532900,0.532800,0.532800,0.532800,0.532900,0.533100,0.531900,0.531800,1.000000,0.490700,0.490600,0.490300,0.490100,1.000000,1.000000,1.000000,1.000000,1.000000,1.000000,0.287200,0.287200,0.286700,0.285400,0.285400,0.285500,0.285600,0.285700,0.285700,0.285600,0.285200,0.285000,0.284900,0.284700,0.284600,0.284500,0.284400,0.284300,0.284100,0.283900,0.283400,0.283400,0.283300,0.283200,0.283200,0.283200,0.283000,0.282900,0.282800,0.282700,0.282700,0.282200,0.282000,0.282000,0.281800,0.281700,0.281600,0.281500,0.281400,0.281400,0.281300,0.281200,0.281000,0.280800,0.280700,0.280600,0.280500,0.280400,0.280300,0.280300,0.280200,0.280200,0.279600,0.279400,0.279300,0.279200,0.279100,0.278800,0.278600,0.278400,0.278400,0.278200,0.278200,0.278000,0.277800,0.277500,0.277300,0.277200,0.277200,0.277300,0.277300,0.277400,0.277400,0.276400,0.276300,0.276200,0.276200,0.276200,0.276200,0.276200,0.276200,0.274900,0.274900,0.274900,1.000000,1.000000,1.000000,1.000000,1.000000,1.000000,1.000000,1.000000,1.000000,1.000000,1.000000,1.000000,1.000000,1.000000,1.000000,1.000000,1.000000,1.000000,1.000000,1.000000,1.000000,1.000000,1.000000,1.000000,1.000000,1.000000,1.000000,1.000000,1.000000,1.000000,1.000000,1.000000,1.000000,1.000000,1.000000,1.000000,1.000000,1.000000,1.000000,1.000000,1.000000,1.000000,1.000000,1.000000,1.000000,1.000000,1.000000,1.000000,1.000000,1.000000,1.000000,0.467700,0.467700,0.467600,0.467600
0.546200,0.546200,0.546200,0.543200,0.545000,0.543200,0.545700,1.000000,1.000000,1.000000,1.000000,1.000000,1.000000,1.000000,1.000000,0.545600,1.000000,1.000000,1.000000,0.548500,1.000000,0.548900,0.548100,1.000000,1.000000,1.000000,0.544700,0.545900,1.000000,0.544400,0.543400,0.543400,0.543500,0.543600,0.544300,0.544400,0.544500,0.544500,1.000000,1.000000,1.000000,1.000000,0.542100,0.542100,0.540300,0.539600,0.538900,0.539000,0.539200,0.540500,0.540500,0.540500,0.540500,0.540400,0.538400,0.538400,0.538400,0.538300,0.538100,0.538000,0.538000,0.538000,1.000000,1.000000,1.000000,0.536700,0.536700,0.536400,0.536200,0.536100,0.536100,0.536000,0.537500,0.537800,0.536100,0.535600,0.535600,0.535500,0.535500,0.534500,0.533500,0.533500,0.533500,0.533500,0.533500,0.533400,0.533300,0.533200,0.533100,0.533100,0.533200,0.535000,0.535000,0.533200,0.533200,0.533000,0.533000,0.533000,0.532900,0.532900,0.532900,0.532900,0.533000,0.533300,0.533400,0.532100,1.000000,0.491600,0.490600,0.490200,0.490100,0.490000,1.000000,1.000000,0.505800,1.000000,1.000000,0.287200,0.287200,0.287100,0.285400,0.285400,0.285600,0.285600,0.285800,0.285800,0.285700,0.285400,0.285100,0.285000,0.284800,0.284700,0.284600,0.284500,0.284400,0.284100,0.283900,0.283400,0.283400,0.283300,0.283300,0.283300,0.283200,0.283000,0.282900,0.282800,0.282800,0.282800,0.282700,0.282100,0.282000,0.281800,0.281700,0.281600,0.281500,0.281400,0.281300,0.281300,0.281200,0.281000,0.280900,0.280800,0.280600,0.280600,0.280500,0.280400,0.280400,0.280400,0.280300,0.279400,0.279400,0.279300,0.279200,0.279100,0.278800,0.278700,0.278500,0.278400,0.278200,0.278100,0.277900,0.277800,0.277500,0.277300,0.277200,0.277200,0.277200,0.277300,0.277300,0.276700,0.276500,0.276400,0.276200,0.276200,0.276200,0.276200,0.276200,0.276200,0.274900,0.274900,0.274900,0.274900,1.000000,1.000000,1.000000,1.000000,1.000000,1.000000,1.000000,1.000000,1.000000,1.000000,0.479800,1.000000,1.000000,1.000000,1.000000,1.000000,1.000000,1.000000,1.000000,1.000000,1.000000,1.000000,1.000000,1.000000,1.000000,1.000000,1.000000,1.000000,1.000000,1.000000,1.000000,1.000000,1.000000,1.000000,1.000000,1.000000,1.000000,1.000000,1.000000,1.000000,1.000000,1.000000,1.000000,1.000000,1.000000,1.000000,1.000000,1.000000,1.000000,1.000000,0.467800,0.467700,0.467600,0.467500
0.546200,0.546200,0.546200,0.545100,0.545100,0.545400,1.000000,1.000000,1.000000,1.000000,1.000000,1.000000,1.000000,1.000000,1.000000,1.000000,0.545900,0.545900,1.000000,1.000000,1.000000,0.548900,1.000000,1.000000,1.000000,1.000000,0.542900,0.542800,0.542800,0.542900,0.540800,0.540800,0.540800,0.540800,0.541900,0.544400,0.544400,0.543300,1.000000,1.000000,1.000000,0.542000,0.542000,0.542000,0.540400,0.539700,0.539300,0.539300,0.539200,0.540500,0.540500,0.540500,0.540500,0.538600,0.538500,0.538400,0.538400,0.538200,0.538100,0.538000,0.537900,0.537900,0.538000,0.538100,0.538200,0.538400,0.541100,0.536900,0.536200,0.536100,0.536100,0.536000,0.536100,0.537700,0.536000,0.535600,0.535600,0.535500,0.535400,0.535200,1.000000,0.534800,0.533500,0.533500,0.533400,0.533300,0.533300,0.533200,0.533200,0.533600,0.534800,0.534100,0.533400,0.533300,0.533200,0.533100,0.533000,0.533000,0.533000,0.533000,0.533000,0.533000,0.533000,0.533200,0.533400,0.533500,1.000000,0.491800,0.491500,0.490100,1.000000,0.490000,1.000000,1.000000,0.505800,0.504400,0.288100,0.287200,0.287200,0.287200,0.285900,0.285500,0.285600,0.285700,0.285900,0.285800,0.285700,0.285400,0.285300,0.285100,0.285000,0.284900,0.284800,0.284700,0.284600,0.284300,0.284000,0.283500,0.283400,0.283400,0.283300,0.283300,0.283200,0.283000,0.282800,0.282800,0.282800,0.282800,0.282900,0.283000,0.283100,0.282000,0.281700,0.281600,0.281500,0.281400,0.281300,0.281300,0.281100,0.281000,0.280800,0.280800,0.280600,0.280600,0.280500,0.280500,0.280500,0.280400,0.280400,0.279300,0.279200,0.279200,0.279100,0.279000,0.278800,0.278700,0.278400,0.278400,0.278200,0.278000,0.277800,0.277700,0.277500,0.277300,0.277300,0.277200,0.277200,0.277100,0.276800,0.276700,0.276500,0.276400,0.276200,0.276200,0.276200,0.276200,0.276100,0.276100,0.275900,0.275000,0.274900,0.274900,0.274900,0.274800,0.274800,1.000000,1.000000,1.000000,1.000000,1.000000,1.000000,1.000000,0.477600,0.479800,1.000000,1.000000,1.000000,1.000000,1.000000,1.000000,1.000000,1.000000,1.000000,1.000000,1.000000,1.000000,1.000000,0.487300,1.000000,1.000000,1.000000,1.000000,1.000000,1.000000,1.000000,1.000000,1.000000,0.513100,0.512900,0.512800,1.000000,1.000000,1.000000,1.000000,1.000000,1.000000,1.000000,1.000000,1.000000,1.000000,1.000000,1.000000,0.468200,0.467800,0.467500,0.467400
0.546200,0.546200,1.000000,0.545000,0.545100,0.545400,0.547700,1.000000,1.000000,1.000000,1.000000,1.000000,1.000000,1.000000,1.000000,1.000000,0.545900,0.545900,0.546100,1.000000,1.000000,1.000000,1.000000,1.000000,1.000000,1.000000,1.000000,1.000000,0.542800,0.542800,0.540900,0.540800,0.540800,0.540800,0.541800,0.544300,0.544400,0.543300,1.000000,1.000000,1.000000,0.542000,0.542000,0.542000,0.540400,0.540500,0.540600,0.540800,0.540900,0.541000,0.541000,0.540500,0.539500,0.539000,0.538900,0.538700,0.538400,0.538200,0.538000,0.538000,0.537900,0.537900,0.537900,0.538000,0.538000,0.540400,0.542800,0.539300,0.537100,0.536100,0.536100,0.536100,0.535400,0.536000,0.536000,0.535900,0.535700,0.535500,0.535400,0.535200,0.535100,0.535000,0.533500,0.533500,0.533400,0.533300,0.533300,0.534700,0.534700,0.534800,0.534800,0.533500,0.533400,0.533300,0.533300,0.533200,0.533200,0.533200,0.533200,0.533200,0.533200,0.533100,0.533100,0.533100,0.533300,0.532600,1.000000,0.491700,0.491700,0.490000,0.490000,0.490000,1.000000,1.000000,0.500000,1.000000,1.000000,0.287300,0.287200,0.287100,0.287000,0.285900,0.285900,0.285900,0.286000,0.285900,0.285700,0.285400,0.285200,0.285000,0.284900,0.284900,0.284900,0.284800,0.284700,0.284400,0.284200,0.283600,0.283400,0.283400,0.283300,0.283300,0.283100,0.282900,0.282800,0.282700,0.282700,0.282900,0.283000,0.283100,0.283100,0.283100,0.281800,0.281600,0.281500,0.281400,0.281300,0.281200,0.281100,0.281000,0.280800,0.280700,0.280600,0.280500,0.280500,0.280500,0.280500,0.280500,0.279400,0.279300,0.279200,0.279200,0.279000,0.279000,0.278800,0.278600,0.278400,0.278300,0.278200,0.277900,0.277700,0.277600,0.277500,0.277400,0.277300,0.277200,0.277100,0.277000,0.276700,0.276600,0.276400,0.276200,0.276100,0.276100,0.276000,0.276000,0.276000,0.275600,0.275400,0.275000,0.275000,0.274900,0.274800,0.274800,0.274700,0.274100,0.274100,0.274200,1.000000,1.000000,1.000000,0.477300,0.477200,0.477000,0.476800,0.476800,1.000000,1.000000,1.000000,1.000000,1.000000,1.000000,1.000000,1.000000,1.000000,1.000000,1.000000,0.486100,0.487300,0.487300,1.000000,1.000000,1.000000,1.000000,1.000000,1.000000,1.000000,1.000000,0.513000,1.000000,0.511100,0.511100,1.000000,1.000000,1.000000,1.000000,1.000000,1.000000,1.000000,1.000000,1.000000,1.000000,1.000000,0.468300,0.468200,0.467400
1.000000,1.000000,1.000000,0.544100,0.545200,0.547600,1.000000,1.000000,1.000000,0.547000,0.545500,1.000000,1.000000,1.000000,1.000000,0.544800,1.000000,1.000000,1.000000,1.000000,1.000000,0.543300,0.543300,1.000000,1.000000,1.000000,1.000000,0.542800,0.542800,1.000000,0.543400,0.540800,0.540800,0.540800,0.543500,0.543900,0.544300,1.000000,1.000000,1.000000,0.542000,0.543200,0.542000,0.542000,0.540500,0.540500,0.540600,0.540800,0.540900,0.541000,0.541000,0.541100,0.541000,0.539300,0.539200,1.000000,1.000000,0.540900,0.540900,0.540900,0.540800,0.537900,0.537900,0.537900,0.537900,0.539400,0.540200,0.539400,0.537800,0.536200,0.536100,0.535300,0.535300,0.536000,0.536000,0.536000,0.535900,0.535600,0.535400,0.535200,0.535100,0.535000,0.534000,0.533600,0.533600,0.534800,0.534800,0.534700,0.534700,0.534600,0.534300,0.533900,0.533500,0.533300,0.533300,0.533300,0.533300,0.533300,0.533300,0.533300,0.533200,0.533200,0.533000,0.532800,0.532600,0.532600,1.000000,0.491600,0.491600,0.489900,0.489900,0.489900,1.000000,1.000000,1.000000,1.000000,0.287300,0.287300,0.287200,0.287100,0.286900,0.286200,0.286200,0.286100,0.286100,0.285900,0.285700,0.285300,0.285000,0.284900,0.284800,0.284900,0.284900,0.284800,0.284800,0.284500,0.284400,0.283800,0.283600,0.283400,0.283300,0.283200,0.283100,0.282800,0.282700,0.282700,0.282700,0.282800,0.283000,0.283100,0.283100,0.283100,0.281800,0.281600,0.281500,0.281400,0.281200,0.281100,0.281000,0.280900,0.280800,0.280700,0.280500,0.280400,0.280300,0.280300,0.280300,0.279500,0.279400,0.279200,0.279200,0.279100,0.278900,0.278800,0.278600,0.278400,0.278200,0.278100,0.278000,0.277800,0.277700,0.277600,0.277500,0.277400,0.277300,0.277100,0.277000,0.276800,0.276600,0.276400,0.276100,0.276000,0.276000,0.276000,0.276000,0.275900,0.275800,0.275400,0.275200,0.275000,0.274900,0.274900,0.274800,0.274800,0.274700,0.274500,0.274200,0.274300,0.274600,1.000000,1.000000,0.477200,0.477200,0.476900,0.476800,1.000000,1.000000,1.000000,1.000000,1.000000,1.000000,1.000000,1.000000,1.000000,1.000000,1.000000,1.000000,1.000000,0.486000,0.486200,0.487200,1.000000,1.000000,0.478000,1.000000,1.000000,1.000000,1.000000,1.000000,1.000000,1.000000,1.000000,1.000000,1.000000,1.000000,1.000000,1.000000,0.471200,1.000000,1.000000,0.468100,0.469500,0.469400,0.469400,0.468300,0.468300
1.000000,1.000000,1.000000,1.000000,1.000000,0.547600,0.547600,0.549200,1.000000,0.547400,0.547100,0.545500,0.544200,0.544600,0.544700,1.000000,0.544700,1.000000,1.000000,1.000000,1.000000,0.543300,0.543300,1.000000,1.000000,1.000000,1.000000,1.000000,1.000000,1.000000,1.000000,0.543600,0.543500,0.543500,0.543400,0.543400,1.000000,0.543100,1.000000,1.000000,1.000000,0.543200,0.543100,0.542000,0.540600,0.540600,0.539200,1.000000,0.539000,0.539000,0.540200,0.541100,0.541100,0.539200,0.539200,0.539200,0.539600,0.541000,0.541000,0.540900,0.540800,0.539000,0.537900,0.537100,0.537300,0.537900,0.539300,0.539300,1.000000,1.000000,0.536200,0.536200,0.535300,0.536100,0.536100,0.536000,0.536000,0.534000,0.534000,0.534000,0.535000,0.535000,0.535000,0.535000,0.534900,0.535600,0.534800,0.534700,0.534700,0.534400,0.534200,0.534200,0.534200,0.533400,0.533400,0.533400,0.533400,0.533400,0.533400,0.533400,0.533400,0.533200,0.533000,0.532800,0.532700,0.532600,1.000000,1.000000,1.000000,0.489900,0.489900,0.489900,1.000000,1.000000,1.000000,1.000000,0.287300,0.287200,0.287200,0.286400,0.286200,0.286200,0.286200,0.286200,0.286100,0.285900,0.285700,0.284700,0.284600,0.284600,0.284600,0.284600,0.284700,0.284800,0.284700,0.284400,0.284000,0.283700,0.283600,0.283400,0.283200,0.283100,0.282900,0.282700,0.282600,0.282600,0.282600,0.282600,0.282700,0.283000,0.283000,0.282000,0.281900,0.281700,0.281500,0.281400,0.281200,0.281100,0.281000,0.280900,0.280800,0.280700,0.280400,0.280300,0.280300,0.280200,0.280100,0.279600,0.279500,0.279300,0.279200,0.279100,0.278900,0.278800,0.278500,0.278400,0.278200,0.278000,0.277900,0.277800,0.277700,0.277600,0.277600,0.277400,0.277300,0.277100,0.276900,0.276800,0.276400,0.276100,0.275900,0.275800,0.275800,0.275800,0.275800,0.275700,0.275600,0.275100,0.275000,0.274800,0.274800,0.274800,0.274800,0.274800,0.274700,0.274600,0.274500,0.274500,0.274600,1.000000,0.477200,0.477100,0.477000,0.476800,0.476700,0.476700,0.476600,1.000000,1.000000,1.000000,1.000000,1.000000,1.000000,1.000000,1.000000,1.000000,1.000000,1.000000,1.000000,1.000000,1.000000,1.000000,1.000000,0.476400,0.476300,1.000000,1.000000,1.000000,1.000000,1.000000,1.000000,1.000000,1.000000,1.000000,1.000000,1.000000,1.000000,1.000000,0.468400,0.468300,0.468300,1.000000,0.469600,0.469600,0.469600,0.469600
1.000000,1.000000,1.000000,1.000000,1.000000,0.545600,0.545600,1.000000,1.000000,0.547400,0.547400,0.547000,0.544400,0.544600,0.544700,0.544700,0.544700,1.000000,1.000000,1.000000,1.000000,0.543300,0.543300,0.543400,1.000000,1.000000,1.000000,1.000000,1.000000,1.000000,0.545800,1.000000,0.543600,0.543500,0.543400,0.543200,0.543100,0.543100,1.000000,1.000000,0.541200,0.543200,0.543100,0.542000,0.540600,0.539300,1.000000,0.539100,0.539000,0.539000,0.539100,0.541100,0.541100,0.539100,0.539100,0.539100,0.539100,0.541000,0.541000,0.541000,0.541400,0.540600,0.538100,0.537100,0.537100,0.537800,0.539300,0.539100,0.539200,0.538000,0.536200,0.536200,0.536200,1.000000,0.536100,0.536100,0.536000,0.534000,0.534000,0.534000,0.535000,0.535000,0.535000,0.535000,0.535000,0.535700,0.535700,0.534700,0.533800,0.533900,0.534100,0.534200,0.534200,0.534100,0.534100,0.533600,0.533500,0.533500,0.533500,0.533500,0.533500,0.533000,0.532900,0.532700,0.532700,0.532600,1.000000,0.490100,0.490000,0.490000,0.490000,0.489900,1.000000,1.000000,1.000000,1.000000,0.286000,0.286000,0.286700,0.286100,0.286100,0.286100,0.286100,0.286100,0.286000,0.285900,0.285700,0.284700,0.284600,0.284500,0.284400,0.284400,0.284300,0.284200,0.284100,0.284000,0.283800,0.283700,0.283500,0.283400,0.283200,0.283100,0.282800,0.282700,0.282600,0.282500,0.282500,0.282600,0.282600,0.282500,0.282200,0.282000,0.282000,0.281700,0.281600,0.281400,0.281200,0.281100,0.281000,0.280900,0.280800,0.280700,0.280300,0.280200,0.280200,0.280100,0.280000,0.279700,0.279600,0.279300,0.279200,0.279100,0.278800,0.278800,0.278500,0.278300,0.278100,0.278000,0.278000,0.277800,0.277800,0.277700,0.277600,0.277500,0.277300,0.277100,0.276900,0.276800,0.276300,0.276100,0.275900,0.275800,0.275800,0.275800,0.275800,0.275700,0.275600,0.275000,0.274900,0.274800,0.274800,0.274700,0.274700,0.274700,0.274700,0.274600,0.274600,0.274600,0.274600,1.000000,0.477100,0.477000,0.476900,0.476800,0.476700,0.476600,0.475300,1.000000,1.000000,1.000000,1.000000,1.000000,1.000000,1.000000,1.000000,1.000000,1.000000,1.000000,1.000000,1.000000,1.000000,0.475900,0.476000,0.476200,0.475700,1.000000,0.472900,1.000000,1.000000,1.000000,1.000000,1.000000,1.000000,1.000000,1.000000,0.471300,0.471300,0.471300,0.469900,0.468300,0.468300,0.469600,0.469600,0.469600,0.469600,0.469600
1.000000,0.548300,1.000000,1.000000,1.000000,1.000000,0.545700,0.547500,1.000000,0.547400,0.547400,0.547300,0.544700,0.544700,0.544700,0.544700,0.543800,0.539000,0.539000,0.539000,0.543300,0.543300,0.541600,0.541400,1.000000,1.000000,1.000000,1.000000,1.000000,1.000000,0.545800,0.543900,0.543400,0.541800,0.541800,0.541900,0.543100,1.000000,1.000000,1.000000,0.537800,0.541000,0.540800,0.539300,0.539400,0.539400,0.539400,0.540600,0.539100,0.539100,0.539200,0.540800,0.541200,0.539000,0.539000,0.539000,0.539100,0.541300,0.541600,0.541700,1.000000,0.541100,0.540200,0.537100,0.537200,0.537800,1.000000,0.539000,0.539000,0.537800,0.536200,0.536200,0.536200,0.536300,1.000000,0.536300,0.536100,0.534000,0.534000,0.534000,0.535100,0.535100,0.535100,0.535200,0.535600,0.535700,0.535700,0.533600,0.533500,0.533500,0.533600,0.533900,0.534100,0.534100,0.534000,0.533700,0.533500,0.533500,0.533500,0.533600,0.533600,0.533600,0.532800,0.532700,0.532600,0.532500,1.000000,0.490100,0.490100,0.490000,0.490000,0.489900,1.000000,1.000000,0.286000,0.286000,0.286000,0.286000,0.286000,0.286000,0.286000,0.286000,0.286000,0.286000,0.286000,0.285900,0.285800,0.285400,0.284500,0.284400,0.284400,0.284300,0.284200,0.284100,0.284000,0.283900,0.283800,0.283600,0.283500,0.283400,0.283200,0.283000,0.282800,0.282700,0.282600,0.282500,0.282500,0.282500,0.282400,0.282300,0.282200,0.282000,0.282000,0.281800,0.281600,0.281400,0.281200,0.281100,0.281000,0.281000,0.280800,0.280700,0.280100,0.280100,0.280100,0.280100,0.280000,0.279800,0.279600,0.279400,0.279200,0.279100,0.278900,0.278800,0.278500,0.278300,0.278100,0.278100,0.278000,0.277900,0.277800,0.277800,0.277700,0.277500,0.277300,0.277100,0.277000,0.276900,0.276400,0.276100,0.275900,0.275800,0.275800,0.275800,0.275800,0.275700,0.275600,0.275000,0.274900,0.274800,0.274700,0.274700,0.274700,0.274700,0.274700,0.274700,0.274700,0.274700,0.274700,1.000000,1.000000,0.476900,0.476800,0.476700,0.476600,0.475400,0.474700,1.000000,0.474700,1.000000,1.000000,0.476900,0.476600,0.476400,0.475500,0.475500,0.475500,0.475400,0.475200,0.475100,0.475100,0.475500,0.475600,0.475600,0.473400,0.473400,0.473100,0.472800,0.472600,0.472600,0.472600,0.472600,0.472700,0.472800,0.472800,0.471300,0.471300,0.471300,0.471300,0.469800,0.469800,0.469700,0.469700,0.469700,0.469700,0.469700
0.548200,0.548200,1.000000,1.000000,1.000000,0.545700,0.545700,0.547300,0.547400,0.547400,0.547300,0.544900,0.544700,0.544700,0.544700,0.545800,0.545800,0.545800,0.543800,0.543700,0.545800,0.545800,0.543100,0.541500,1.000000,1.000000,1.000000,1.000000,1.000000,1.000000,1.000000,1.000000,0.541700,0.541700,0.541800,0.541800,0.543000,1.000000,1.000000,1.000000,0.537900,0.539000,0.539100,0.539100,0.539300,0.539400,0.540700,0.542000,0.539300,0.539300,0.539300,0.541000,0.541100,0.538500,0.538500,0.538900,0.539100,0.539400,0.539600,0.539700,0.540600,0.540100,0.540000,0.537300,0.537800,0.538000,0.538800,0.538900,0.538900,0.537700,0.536200,0.536200,0.536200,1.000000,1.000000,0.536400,0.536400,0.535900,0.534100,0.534100,0.535200,0.535200,0.535300,0.535600,0.535600,0.535600,0.535600,0.533400,0.533300,0.533200,0.532900,0.532900,0.533000,0.533500,0.533900,0.533500,0.533500,0.533500,0.533500,0.533600,0.533700,0.533800,0.532700,0.532700,0.532600,0.532400,1.000000,1.000000,0.490400,0.490300,0.490200,0.490100,1.000000,1.000000,0.286600,0.286000,0.286000,0.286000,0.286000,0.286000,0.286000,0.285900,0.285900,0.285900,0.285800,0.285800,0.285700,0.285600,0.284700,0.284400,0.284300,0.284300,0.284100,0.284100,0.284000,0.283900,0.283800,0.283600,0.283400,0.283300,0.283100,0.283000,0.282800,0.282700,0.282600,0.282500,0.282600,0.282500,0.282400,0.282200,0.282100,0.282000,0.281900,0.281700,0.281600,0.281400,0.281200,0.281200,0.281100,0.281000,0.281000,0.280300,0.280000,0.280000,0.280100,0.280200,0.280200,0.280000,0.279800,0.279500,0.279300,0.279100,0.279000,0.278900,0.278900,0.278900,0.278200,0.278200,0.278700,0.278200,0.278100,0.277900,0.277700,0.277300,0.277200,0.277100,0.277000,0.276900,0.276700,0.276300,0.276000,0.275900,0.275800,0.275800,0.275800,0.275700,0.275700,0.275300,0.274900,0.274800,0.274700,0.274700,0.274700,0.274700,0.274700,0.274700,0.274700,0.274700,0.274700,1.000000,1.000000,0.476800,0.476700,0.475600,0.474800,0.474800,0.474800,0.474900,0.474800,0.474300,1.000000,0.476700,0.476600,0.476600,0.475500,0.475500,0.475400,0.475300,0.475200,0.475000,0.475000,0.475300,0.475400,0.475400,0.473500,0.473400,1.000000,0.472800,0.472600,0.472600,0.472600,0.472600,0.472700,0.472700,0.472800,0.471400,0.471400,0.471300,0.470000,0.469900,0.469800,0.469700,0.469700,0.469700,0.469700,0.469700
0.548200,0.548200,0.548400,1.000000,1.000000,0.547200,0.547200,0.547300,1.000000,0.547400,1.000000,0.544000,0.544100,0.544100,0.544100,0.545900,0.545800,0.545800,0.545800,0.545800,0.545800,0.545800,0.545800,0.542100,1.000000,1.000000,1.000000,1.000000,1.000000,1.000000,1.000000,1.000000,0.541700,0.541700,0.541700,0.543000,0.544000,1.000000,1.000000,1.000000,1.000000,0.539000,0.539000,0.539000,1.000000,1.000000,0.542000,0.542000,0.539500,0.539500,0.539500,0.541000,0.541100,1.000000,0.538600,0.539000,0.539200,0.539400,0.538300,0.538300,0.539900,0.539800,0.539100,0.538000,0.538000,0.538900,0.538900,0.538900,0.538900,0.537700,0.537600,0.536200,0.536100,1.000000,0.535700,0.535700,0.536400,0.536300,0.536100,0.535300,0.535300,0.535300,0.535600,0.535700,0.535700,0.535600,0.535600,0.533300,0.533000,0.533000,0.532900,0.532900,0.532900,0.532900,0.533100,0.533300,0.533400,0.533500,0.533500,0.533600,0.533700,0.533800,0.532600,0.532600,0.532400,0.532100,1.000000,0.490600,0.490500,0.490400,0.490400,0.490200,1.000000,1.000000,0.286600,0.286500,0.286100,0.286100,0.286100,0.286000,0.286000,0.285900,0.285900,0.285800,0.285800,0.285800,0.285700,0.285600,0.285500,0.284400,0.284300,0.284300,0.284100,0.284100,0.284000,0.283900,0.283800,0.283600,0.283400,0.283300,0.283100,0.283000,0.282800,0.282800,0.282700,0.282700,0.282600,0.282600,0.282400,0.282200,0.282000,0.281900,0.281800,0.281700,0.281600,0.281400,0.281200,0.281200,0.281100,0.281100,0.281000,0.280100,0.280000,0.280000,0.280100,0.280200,0.280200,0.280100,0.279900,0.279600,0.279400,0.279200,0.279000,0.278900,0.278900,0.278900,0.278900,0.278800,0.278800,0.278600,0.278200,0.277800,0.277500,0.277300,0.277200,0.277100,0.277000,0.277000,0.276800,0.276700,0.276200,0.276100,0.276000,0.275900,0.275900,0.275800,0.275700,0.275500,0.275400,0.275000,0.274800,0.274800,0.274800,0.274800,0.274800,0.274800,0.274700,0.274700,0.274700,1.000000,1.000000,0.475000,0.475000,0.474900,0.474800,0.474800,0.476200,0.476600,0.475600,0.475800,0.476400,0.476600,0.476600,0.476600,0.475400,0.475400,0.475300,0.475200,0.475000,0.474900,0.474800,0.474900,0.475000,0.475100,0.473500,0.473500,0.473500,0.472800,0.472600,0.472600,0.472600,0.472600,0.472700,0.472700,0.472700,0.470800,0.470700,0.470600,0.470000,0.469900,0.469800,0.469800,0.469700,0.469700,0.469800,0.469800
0.546200,0.546200,1.000000,1.000000,1.000000,0.547300,0.547300,0.547300,0.547300,0.547400,1.000000,0.544000,0.544000,0.544100,0.544100,1.000000,0.545800,0.545800,0.545800,0.545800,0.545800,1.000000,1.000000,1.000000,1.000000,1.000000,1.000000,1.000000,1.000000,1.000000,1.000000,1.000000,0.541800,0.541800,0.541800,0.544000,0.544000,1.000000,1.000000,1.000000,1.000000,0.540800,0.539000,0.539000,0.539000,1.000000,0.541900,0.541900,0.539600,0.539500,0.539500,0.539500,1.000000,1.000000,1.000000,0.538400,0.538500,0.538200,0.538200,0.538200,0.538200,0.538200,0.538100,0.538100,0.538100,0.539000,0.539000,0.539000,0.539000,0.537700,0.536200,0.536100,0.536000,0.535900,0.535500,0.536100,0.536400,0.536300,0.536200,0.536000,0.536000,0.536000,0.536000,0.535900,0.535800,0.535700,0.536400,0.535200,0.533000,0.532900,0.532800,0.532800,0.532900,0.532900,0.533100,0.533200,0.533500,0.533600,0.533600,0.533700,0.533800,0.533800,0.532600,0.532500,0.532400,0.531600,1.000000,0.490600,0.490600,0.490600,0.490600,0.490600,0.490700,1.000000,0.286600,0.286500,0.286300,0.286200,0.286200,0.286100,0.286000,0.285900,0.285900,0.285800,0.285800,0.285800,0.285600,0.285500,0.285400,0.284400,0.284300,0.284300,0.284200,0.284100,0.284000,0.283900,0.283800,0.283600,0.283400,0.283300,0.283100,0.283100,0.283000,0.283000,0.282900,0.282800,0.282800,0.282800,0.282700,0.282700,0.281900,0.281800,0.281800,0.281700,0.281700,0.281600,0.281400,0.281400,0.281300,0.281200,0.281000,0.280100,0.280000,0.280000,0.280100,0.280200,0.280300,0.280300,0.280200,0.279600,0.279400,0.279300,0.279000,0.279000,0.278900,0.278900,0.278800,0.278800,0.278800,0.278600,0.278000,0.277700,0.277400,0.277200,0.277100,0.277100,0.277000,0.277000,0.276900,0.276800,0.276200,0.276200,0.276000,0.276000,0.275900,0.275800,0.275700,0.275600,0.275500,0.275300,0.274900,0.274900,0.274900,0.274900,0.274800,0.274800,0.274800,0.274800,0.274800,1.000000,1.000000,1.000000,0.475000,0.474900,0.474900,0.476700,0.476700,0.476800,0.476700,0.476600,0.476600,0.476700,0.476700,0.476800,0.476700,0.475300,0.475300,0.475200,0.475000,0.474800,0.474700,0.474700,0.474900,0.475000,0.475000,0.475000,0.474900,0.473800,0.473800,0.472600,0.472600,0.472600,0.472700,0.472600,0.472600,0.470700,0.470600,0.470500,0.470000,0.470000,0.469800,0.468400,0.468300,0.468200,0.469400,0.469800
0.546200,0.546200,1.000000,1.000000,1.000000,1.000000,0.547300,0.547300,0.549100,0.549100,0.547300,0.545200,0.544000,0.544000,0.545700,0.545900,0.545900,0.545800,0.545800,0.544200,0.545800,1.000000,1.000000,1.000000,1.000000,1.000000,1.000000,1.000000,1.000000,1.000000,1.000000,1.000000,0.541800,0.541800,0.541800,0.543600,1.000000,1.000000,1.000000,1.000000,1.000000,0.541600,0.541600,0.540600,1.000000,1.000000,1.000000,0.541800,0.539500,0.539500,0.539500,0.539500,0.539500,1.000000,0.538400,0.538300,0.537400,0.537400,0.538000,0.538200,0.538200,0.538200,0.538200,0.538200,0.538600,0.539300,0.539100,0.539100,0.539000,0.537700,0.536200,0.536100,0.536000,0.536000,0.536000,0.536200,0.536400,0.536300,0.536200,0.535800,0.536000,0.536000,0.536100,0.536100,0.536000,0.536400,0.536500,0.536600,0.534200,0.534100,0.533900,0.533800,0.532900,0.532900,0.533100,0.533300,0.533600,0.533600,0.533700,0.533800,0.533700,0.533700,0.532600,0.532400,0.531600,0.531600,1.000000,0.490700,0.490700,0.490700,0.490800,0.490800,0.490900,1.000000,0.286500,0.286400,0.286300,0.286200,0.286200,0.286200,0.286200,0.286100,0.286000,0.286000,0.285900,0.285800,0.285600,0.285400,0.285300,0.284600,0.284400,0.284300,0.284200,0.284100,0.284000,0.283900,0.283800,0.283600,0.283500,0.283400,0.283200,0.283200,0.283100,0.283100,0.283000,0.282900,0.282800,0.282800,0.282700,0.282700,0.282600,0.281800,0.281800,0.281800,0.281700,0.281700,0.281500,0.281400,0.281400,0.281200,0.281000,0.280100,0.280100,0.280100,0.280200,0.280200,0.280300,0.280300,0.280100,0.279600,0.279400,0.279300,0.279000,0.278900,0.278800,0.278800,0.278800,0.278700,0.278700,0.278600,0.278300,0.277700,0.277400,0.277200,0.277100,0.277100,0.277100,0.277100,0.277100,0.277100,0.277000,0.277000,0.276200,0.276100,0.276000,0.275800,0.275800,0.275600,0.275500,0.275400,0.275200,0.275200,0.275100,0.275100,0.275000,0.274900,0.274800,0.274800,0.274800,1.000000,1.000000,0.475000,0.476400,0.476500,0.476600,0.476800,0.476800,0.476800,0.476800,0.476700,0.476700,0.476700,0.476800,0.476900,0.476800,0.476600,0.475300,0.475200,0.475200,0.474700,0.474600,0.474300,0.474000,0.474800,0.474900,0.474900,0.474900,0.473900,0.473800,0.472600,0.472600,0.472600,0.472700,0.472600,0.472300,0.470700,0.470600,0.470400,0.470200,0.470100,0.468400,0.468300,0.468300,0.468200,0.468200,0.469600
0.547800,1.000000,1.000000,1.000000,1.000000,0.547400,0.547400,0.547300,0.549100,0.549000,0.547300,1.000000,0.545300,0.545600,0.545700,0.546800,0.546400,0.545800,0.544200,0.544200,0.544100,0.544200,1.000000,1.000000,1.000000,1.000000,1.000000,1.000000,1.000000,1.000000,1.000000,0.544300,0.541800,0.541800,0.541800,0.542000,0.543000,1.000000,1.000000,1.000000,0.538400,1.000000,0.541600,1.000000,1.000000,1.000000,0.540300,0.541800,0.539500,0.539500,0.539500,0.539500,0.539500,0.538200,0.537900,0.537500,0.537300,0.537300,0.537300,0.538000,0.538300,0.538300,0.538200,0.538200,0.539200,0.539300,0.539200,0.539100,0.539000,0.537700,0.536800,0.537200,1.000000,1.000000,0.536000,0.536800,0.537300,0.536300,0.535000,0.535000,0.535700,0.536100,0.536100,0.536200,0.536200,0.536400,0.536600,0.536600,0.535000,0.535000,0.535100,0.533900,0.533900,0.533000,0.533200,0.533700,0.533800,0.533800,0.533800,0.533800,0.533700,0.533600,0.533600,0.532600,0.531800,0.531600,1.000000,1.000000,0.490800,0.490800,0.490900,0.490900,0.491000,1.000000,0.286400,0.286300,0.286200,0.286200,0.286200,0.286200,0.286200,0.286200,0.286200,0.286100,0.286000,0.285900,0.285600,0.285500,0.285300,0.284800,0.284400,0.284400,0.284200,0.284200,0.284100,0.284000,0.283900,0.283700,0.283500,0.283400,0.283300,0.283300,0.283300,0.283200,0.283100,0.283000,0.282900,0.282700,0.282600,0.282500,0.282000,0.281800,0.281800,0.281800,0.281800,0.281800,0.281700,0.281600,0.281400,0.281400,0.281000,0.280200,0.280200,0.280100,0.280200,0.280300,0.280300,0.280200,0.280000,0.279600,0.279400,0.279300,0.279000,0.278900,0.278800,0.278700,0.278600,0.278600,0.278600,0.278500,0.278500,0.277700,0.277300,0.277200,0.277100,0.277100,0.277100,0.277100,0.277100,0.277100,0.277100,0.277100,0.276800,0.276200,0.276100,0.275900,0.275800,0.275600,0.275500,0.275500,0.275300,0.275300,0.275200,0.275100,0.275100,0.274900,0.274800,0.274800,0.274800,1.000000,1.000000,1.000000,0.476400,0.476500,0.476600,0.476800,0.476800,0.476900,0.476900,0.476900,0.476700,0.476700,0.476900,0.477000,0.476900,0.476500,0.476400,0.476300,0.476200,0.474700,0.474200,0.473900,0.473700,0.473700,0.474500,0.474600,0.474100,0.473900,0.473900,0.473800,0.472300,0.472200,0.472700,0.472700,0.472100,0.470600,0.470200,0.470200,0.470100,0.470100,0.468600,0.468300,0.468300,0.468200,0.469400,0.470300
0.549100,1.000000,1.000000,1.000000,1.000000,0.548800,0.548800,0.549300,1.000000,1.000000,1.000000,1.000000,1.000000,0.548100,0.548200,0.548400,0.546700,0.546000,0.544300,0.543200,0.543200,0.543200,1.000000,1.000000,1.000000,1.000000,1.000000,1.000000,0.545000,1.000000,0.544500,1.000000,0.541700,0.541700,0.541700,0.541800,1.000000,1.000000,1.000000,1.000000,0.538400,0.541600,0.541500,0.541500,1.000000,0.539200,0.540300,0.541700,0.541800,0.539500,0.539500,0.539500,0.539500,0.538100,0.537900,0.537400,0.537300,0.537300,0.537300,0.537400,0.538300,0.538300,0.538200,0.538100,0.538100,0.538100,0.536200,0.536200,0.539000,0.539000,0.537600,0.537600,1.000000,0.537800,0.537800,0.537800,0.537800,0.536500,0.535000,0.535000,0.535000,0.536000,0.536200,0.536300,0.536400,0.536500,0.536600,0.536700,0.536800,0.536700,0.536400,0.535000,0.534200,0.534000,0.534000,0.533900,0.533900,0.533800,0.533800,0.533800,0.533700,0.533600,0.533600,0.533400,0.533300,0.531600,0.531700,1.000000,1.000000,0.490900,0.491000,0.491000,0.491000,1.000000,0.286300,0.286200,0.286100,0.286100,0.286100,0.286200,0.286200,0.286200,0.286200,0.286200,0.286100,0.286000,0.285700,0.285500,0.285300,0.285000,0.284500,0.284400,0.284300,0.284200,0.284100,0.284000,0.284000,0.283800,0.283700,0.283600,0.283500,0.283500,0.283600,0.283600,0.283200,0.283100,0.282900,0.282600,0.282300,0.282100,0.281900,0.281800,0.281800,0.281900,0.282000,0.282000,0.281900,0.281800,0.281600,0.281500,0.281300,0.281000,0.280400,0.280300,0.280300,0.280300,0.280300,0.280100,0.279900,0.279600,0.279500,0.279300,0.279000,0.278800,0.278600,0.278600,0.278400,0.278400,0.278400,0.278500,0.278500,0.277500,0.277300,0.277200,0.277100,0.277100,0.277100,0.277100,0.277200,0.277200,0.277200,0.277100,0.276800,0.276600,0.276200,0.275900,0.275800,0.275600,0.275600,0.275500,0.275400,0.275300,0.275200,0.275200,0.275100,0.274900,0.274800,0.274800,0.274800,0.274800,1.000000,1.000000,0.476400,0.476500,0.476600,0.476800,0.476900,0.477100,0.477200,0.477400,0.477600,0.477600,0.477500,0.477200,0.476800,0.476400,0.476400,0.476300,0.476200,0.474600,0.474100,0.473800,0.473800,0.473800,0.473900,0.474100,0.474100,0.474000,0.473900,0.473800,0.472000,0.472000,0.472000,0.472800,0.472000,0.469900,0.469900,0.470000,0.470000,0.470000,0.469000,0.468400,0.468300,0.468200,0.470300,0.470400
0.549000,1.000000,0.549200,1.000000,1.000000,0.549600,0.549600,0.549600,0.549600,0.547400,1.000000,1.000000,0.548000,0.549200,0.548500,0.548400,0.548400,0.546000,0.544800,0.543200,0.543200,0.543200,0.543100,1.000000,1.000000,1.000000,0.545100,0.545000,0.544900,0.544600,0.544300,1.000000,0.541700,0.541700,0.541700,0.541800,1.000000,1.000000,1.000000,1.000000,1.000000,0.541600,0.541500,0.541500,0.541400,0.540500,0.541700,0.541800,0.542900,0.542900,0.541100,0.539500,0.540700,0.540500,0.539700,0.538200,0.538400,0.538500,0.538500,0.538500,0.539600,0.538200,0.538200,0.538100,0.538100,0.537100,0.536200,0.536200,0.536200,0.539000,0.538900,0.537600,0.537700,0.537800,0.537800,0.537800,0.537800,0.536600,0.535000,0.535000,0.535000,0.535000,0.535100,0.536200,0.536300,0.536500,0.536600,0.536700,0.536800,0.536800,0.536700,0.536000,0.534700,0.534200,0.534100,0.534000,0.535000,0.535000,0.534900,0.534800,0.533700,0.533600,0.533600,0.533500,0.533500,0.533400,1.000000,1.000000,1.000000,0.491000,0.491100,0.491100,0.491200,1.000000,0.286800,0.286100,0.286000,0.286000,0.286100,0.286200,0.286300,0.286300,0.286300,0.286300,0.286200,0.286000,0.285700,0.285600,0.285400,0.285100,0.284600,0.284500,0.284400,0.284300,0.284300,0.284100,0.284000,0.283900,0.283800,0.283800,0.283700,0.283700,0.283800,0.284000,0.283400,0.283100,0.283000,0.282500,0.282300,0.282100,0.282000,0.281900,0.281900,0.282000,0.282100,0.282100,0.282000,0.281900,0.281700,0.281600,0.281200,0.281100,0.280900,0.280300,0.280300,0.280200,0.280200,0.280200,0.280000,0.279800,0.279600,0.279500,0.279000,0.278800,0.278700,0.278600,0.278400,0.278400,0.278500,0.278500,0.278600,0.277500,0.277400,0.277400,0.277300,0.277200,0.277300,0.277300,0.277400,0.277400,0.277300,0.277200,0.276600,0.276400,0.276300,0.276000,0.275900,0.275700,0.275600,0.275500,0.275400,0.275300,0.275200,0.275100,0.275100,0.274900,0.274800,0.274600,0.274600,0.274600,1.000000,1.000000,1.000000,0.474500,0.474700,0.476700,0.476900,0.477200,0.475700,0.475700,0.476000,0.477600,0.477500,0.477300,0.476400,0.475600,0.475600,0.475500,0.474800,0.474600,0.474600,0.474000,0.473700,0.473700,0.473900,0.474100,0.474100,0.474000,0.474000,0.472700,0.472000,0.472000,0.473000,0.473100,0.472100,0.469800,0.469800,0.469900,0.470000,0.470000,0.470000,0.469300,0.469300,0.469300,0.470500,0.470500
0.549000,0.549100,1.000000,1.000000,1.000000,0.549600,0.549600,0.549600,0.549600,0.547600,0.547600,1.000000,0.549200,0.549200,1.000000,0.549400,0.548400,0.545900,0.545600,0.543600,0.543200,0.543200,0.543200,1.000000,1.000000,1.000000,0.544200,0.544200,0.544700,0.544400,0.544400,0.544100,0.541600,0.541600,0.541700,0.541800,0.542200,1.000000,1.000000,1.000000,1.000000,0.541600,0.541500,0.541500,0.541600,0.541200,0.541800,0.543000,0.543000,0.543000,0.542700,0.541000,0.540800,0.540600,0.540400,0.539800,0.540100,0.540200,0.540100,0.539900,0.539800,0.539500,0.538200,0.538100,0.538100,0.538100,0.536200,0.537200,0.538100,0.539300,0.539300,0.539400,0.537800,0.537800,0.537800,0.537500,0.537000,0.536700,0.536700,0.535000,0.535000,0.535000,0.535600,0.536200,0.536200,0.536400,0.536600,0.536700,0.536800,0.536800,0.535800,0.534900,0.534800,0.534700,0.535900,0.535900,0.535800,0.535000,0.534900,0.534800,0.534500,0.533600,0.533600,0.533600,0.533500,0.533500,1.000000,1.000000,0.491100,0.491100,0.491200,0.491200,0.491200,1.000000,0.286800,0.286800,0.286800,0.286700,0.286600,0.286300,0.286400,0.286400,0.286300,0.286300,0.285900,0.285800,0.285600,0.285600,0.285500,0.285300,0.284800,0.284700,0.284500,0.284500,0.285500,0.284300,0.284300,0.284200,0.284100,0.284100,0.284000,0.284100,0.284200,0.284200,0.284100,0.284100,0.283100,0.282800,0.282500,0.282200,0.282100,0.282100,0.282100,0.282100,0.282300,0.282300,0.282200,0.282100,0.281800,0.281400,0.281100,0.281100,0.280900,0.280600,0.280400,0.280200,0.280200,0.280200,0.280000,0.279800,0.279800,0.279700,0.279200,0.278900,0.278700,0.278600,0.278500,0.278500,0.278500,0.278600,0.278700,0.277500,0.277500,0.277500,0.277400,0.277400,0.277400,0.277400,0.277500,0.277500,0.276300,0.276300,0.276300,0.276300,0.276300,0.276100,0.276000,0.275700,0.275600,0.275500,0.275300,0.275200,0.275200,0.275100,0.275100,0.274900,0.274800,0.274600,0.274400,0.274400,1.000000,1.000000,1.000000,1.000000,0.474800,0.474900,1.000000,0.477200,0.474100,0.474100,0.474100,0.475000,0.477500,1.000000,0.477100,0.475300,0.475100,0.474900,0.474800,0.474600,0.474500,0.474400,0.474400,0.474500,0.474400,0.474200,0.474100,0.474000,0.474000,0.472100,0.472100,0.472000,0.473100,0.473200,0.473200,0.469800,0.469800,0.469900,0.469900,0.470000,0.470000,0.469300,0.469300,0.469300,0.470600,0.470600
0.549000,1.000000,1.000000,1.000000,1.000000,0.549600,0.549500,0.549400,0.548600,0.547600,0.547700,0.547600,0.549300,0.551200,0.551200,0.551200,0.548500,0.548500,0.545800,0.545300,0.543200,0.543200,0.543200,1.000000,1.000000,1.000000,0.542700,0.542600,0.542800,0.544400,0.544400,0.544300,0.544300,0.544400,0.543100,0.543000,0.542800,1.000000,1.000000,1.000000,1.000000,0.541600,0.543300,0.543400,0.543400,0.541800,0.541800,1.000000,0.543100,0.543100,0.543000,0.541100,0.541000,0.540800,0.540700,0.540600,0.540400,0.540300,0.540200,0.540200,0.540200,0.539600,0.538200,0.538200,0.538200,0.538200,0.538100,0.538000,0.539300,0.539300,0.539300,0.539400,0.539400,0.537800,0.537600,0.537400,0.537000,0.536800,0.536700,0.536400,0.535800,0.536100,0.536100,0.536200,0.536200,0.536200,0.536300,0.536400,0.535600,0.535300,0.535000,0.534900,0.534900,0.534900,0.536000,0.536000,0.536000,0.535000,0.533800,0.533900,0.534400,0.534200,0.534100,0.533700,0.533700,0.533600,0.533500,1.000000,1.000000,0.491200,0.491200,0.491300,0.491400,1.000000,0.286900,0.286800,0.286800,0.286800,0.286800,0.286700,0.286600,0.286400,0.286300,0.286200,0.285800,0.285700,0.285600,0.285600,0.285600,0.285500,0.285200,0.284800,0.284700,0.285500,0.285500,0.285400,0.284400,0.284300,0.284200,0.284200,0.284200,0.284300,0.284300,0.284200,0.284200,0.283100,0.283000,0.282800,0.282600,0.282300,0.282200,0.282200,0.282200,0.282300,0.282300,0.282300,0.282200,0.282100,0.281400,0.281300,0.281100,0.281000,0.280900,0.280700,0.280400,0.280300,0.280300,0.280300,0.280300,0.280200,0.280100,0.280000,0.279800,0.279500,0.279200,0.279200,0.279200,0.279100,0.279000,0.278900,0.278900,0.277700,0.277700,0.277600,0.277600,0.277600,0.277600,0.277600,0.277600,0.277600,0.276300,0.276300,0.276300,0.276300,0.276300,0.276200,0.276100,0.275800,0.275700,0.275500,0.275200,0.275200,0.275200,0.275200,0.275100,0.275000,0.274800,0.274500,0.274400,0.274300,1.000000,1.000000,1.000000,1.000000,0.474700,1.000000,1.000000,1.000000,0.474100,0.474100,0.474100,0.474100,0.475000,0.477100,0.475700,0.475400,0.475200,0.474900,0.474900,0.474100,0.474100,0.474100,0.474200,0.474700,0.474800,0.474800,0.474700,0.474000,0.473900,0.472200,0.472200,0.472200,0.472200,0.473200,0.473200,0.470000,0.469900,0.470000,0.470000,0.470100,0.470100,0.469200,0.469200,0.469200,0.470800,0.472100
1.000000,1.000000,1.000000,1.000000,1.000000,0.549600,0.548200,0.547400,0.547400,0.547500,0.547700,1.000000,1.000000,0.551200,0.551200,0.551200,1.000000,1.000000,0.546600,0.545500,0.545300,0.543200,0.543200,1.000000,1.000000,1.000000,0.542500,0.542500,0.542600,0.544400,0.544400,0.544400,0.545700,0.545700,0.544500,0.542900,0.542800,0.542700,1.000000,1.000000,1.000000,1.000000,0.543500,0.543500,0.543400,0.541800,0.541800,1.000000,1.000000,0.543200,0.543100,0.541200,0.541100,0.540900,0.540800,0.540700,0.540500,0.540500,0.540400,0.540400,0.540500,0.541100,0.538300,0.538300,0.538300,0.538200,1.000000,1.000000,0.539400,0.539400,0.539400,0.539400,0.539400,0.539300,0.537600,0.537400,0.537200,0.536800,0.536700,0.536600,0.536300,0.536200,0.536100,0.536200,0.536200,0.536200,0.536100,0.535600,0.535500,0.535300,0.535100,0.535100,0.535100,0.535700,0.536000,0.536000,0.536000,0.534900,0.533800,0.533900,0.534000,0.534100,0.534100,0.533800,0.533700,0.533600,0.533600,1.000000,0.491200,0.491300,0.491300,0.492400,1.000000,1.000000,0.286800,0.286800,0.286800,0.286800,0.286800,0.286700,0.286600,0.286400,0.286300,0.286100,0.285700,0.285600,0.285600,0.285500,0.285600,0.285600,0.285600,0.285500,0.285500,0.285600,0.285500,0.284800,0.284400,0.284400,0.284300,0.284300,0.284300,0.284300,0.284300,0.284300,0.283300,0.283100,0.283000,0.282800,0.282700,0.282400,0.282300,0.282300,0.282300,0.282400,0.282400,0.282300,0.282100,0.282000,0.281400,0.281300,0.281200,0.281100,0.281000,0.280600,0.280400,0.280300,0.280300,0.280300,0.280400,0.280400,0.280200,0.280200,0.280000,0.279700,0.279400,0.279300,0.279200,0.279200,0.279100,0.279000,0.279000,0.277800,0.277800,0.277700,0.277700,0.277600,0.277600,0.277600,0.277600,0.277600,0.276300,0.276300,0.276300,0.276300,0.276400,0.276300,0.276200,0.275900,0.275700,0.275400,0.275200,0.275200,0.275200,0.275200,0.275200,0.275100,0.274900,0.274500,0.274400,0.274300,1.000000,1.000000,1.000000,1.000000,1.000000,1.000000,1.000000,1.000000,0.474100,0.474100,0.474100,0.472600,0.475000,0.475900,0.475700,0.475400,0.475200,0.475000,0.474900,0.474100,0.474100,0.474100,0.474100,0.474800,0.474900,0.474900,0.475000,0.474200,0.474000,0.472300,0.472300,0.472300,0.472300,0.473200,0.473200,0.473200,0.470000,0.470000,0.470000,0.470200,0.470200,0.469100,0.469200,0.469200,0.470800,0.472000
1.000000,1.000000,1.000000,1.000000,1.000000,1.000000,1.000000,1.000000,1.000000,0.547500,0.547700,1.000000,1.000000,1.000000,0.551200,0.551300,0.548600,0.546900,1.000000,0.546300,0.546200,0.546100,0.546200,1.000000,1.000000,1.000000,0.542500,0.542500,0.542600,0.544300,0.544400,0.545700,0.547500,0.545700,0.545700,0.542700,0.542700,0.542700,1.000000,1.000000,1.000000,1.000000,1.000000,0.543500,0.541800,0.541700,0.541700,0.541700,0.543300,0.543300,0.543200,0.541700,0.541100,0.541000,0.540900,0.540800,0.540700,0.540600,0.540500,0.540500,1.000000,1.000000,1.000000,0.538500,0.538400,0.538300,0.538100,0.538000,0.539400,0.539400,0.539300,0.539300,0.540700,0.540700,0.539200,0.539200,0.539300,0.537400,0.536800,0.536800,0.536900,0.537000,0.537000,0.537100,0.536200,0.536100,0.535900,0.535500,0.535500,0.535400,0.535300,0.535300,0.535500,0.535900,0.535900,0.535800,0.534600,0.534500,0.533900,0.534000,0.534000,0.534000,0.533900,0.533700,0.533600,0.533600,0.533600,1.000000,0.491300,0.491300,0.491300,0.492500,0.492400,1.000000,0.286800,0.286800,0.286800,0.286800,0.286700,0.286700,0.286600,0.286300,0.286000,0.285800,0.285400,0.285400,0.285400,0.285500,0.285500,0.285600,0.285600,0.285600,0.285600,0.285600,0.285600,0.284500,0.284500,0.284400,0.284400,0.284400,0.284400,0.284400,0.284400,0.284200,0.283300,0.283100,0.283000,0.282900,0.282800,0.282800,0.282800,0.283000,0.282700,0.282500,0.282400,0.282300,0.282100,0.282000,0.281600,0.281400,0.281300,0.281200,0.281000,0.280600,0.280400,0.280400,0.280400,0.280400,0.280500,0.280400,0.280300,0.280200,0.280100,0.279900,0.279500,0.279400,0.279300,0.279300,0.279200,0.279100,0.279100,0.277800,0.277800,0.277800,0.277700,0.277700,0.277600,0.277600,0.277600,0.277700,0.277700,0.276300,0.276300,0.276400,0.276600,0.276500,0.276400,0.276200,0.275900,0.275400,0.275300,0.275300,0.275300,0.275300,0.275300,0.275300,0.275200,0.275000,0.274600,0.274300,1.000000,1.000000,1.000000,1.000000,1.000000,1.000000,1.000000,1.000000,1.000000,0.474800,0.474200,1.000000,1.000000,0.476000,0.476000,0.475800,0.475300,0.475200,0.475200,0.474100,0.474000,0.474000,0.474000,0.474900,0.474900,0.475000,0.475100,0.475000,0.475000,0.473800,0.472300,0.472300,0.472300,0.473200,0.473200,0.473200,0.471100,0.470200,0.470200,0.470300,0.468900,0.468800,0.468700,0.469200,0.470700,0.470700
1.000000,1.000000,1.000000,1.000000,1.000000,1.000000,1.000000,1.000000,0.548200,0.547400,0.547800,0.548000,0.549400,0.551200,0.551200,0.551300,0.547600,0.547600,0.546400,0.546800,0.546600,0.546800,0.548200,1.000000,1.000000,1.000000,0.546000,0.546000,0.546000,0.545900,0.545900,0.547500,0.547500,0.547500,0.545700,0.543500,1.000000,0.542600,0.542600,1.000000,1.000000,1.000000,1.000000,0.542900,0.541600,0.541500,0.541600,0.541600,0.543400,0.543400,0.542000,0.541800,0.541300,0.541200,0.541200,0.541200,0.541300,1.000000,1.000000,1.000000,1.000000,0.538600,0.538600,0.538500,0.538400,0.538100,0.538100,0.538000,0.539400,0.539400,0.539300,0.539300,0.540700,0.540700,0.539300,0.539300,0.539300,0.539300,0.537500,0.536900,0.536900,0.536900,0.536900,0.536800,0.536200,0.536000,0.535300,0.535300,0.535400,0.535500,0.536500,0.536400,0.536200,0.535900,0.535900,0.534600,0.534500,0.534400,0.534200,0.534100,0.534000,0.533900,0.533800,0.533600,0.533600,0.533500,0.533500,1.000000,0.491900,0.492100,0.492300,0.492500,0.492500,1.000000,0.286800,0.286800,0.286800,0.286700,0.286700,0.286600,0.286500,0.285900,0.285700,0.285400,0.285400,0.285400,0.285400,0.285500,0.285500,0.285600,0.285600,0.285600,0.285600,0.285600,0.285600,0.284500,0.284500,0.284400,0.284500,0.284500,0.284500,0.284500,0.284400,0.284000,0.283300,0.283200,0.283100,0.283000,0.282900,0.282900,0.283000,0.283100,0.282800,0.282500,0.282300,0.282200,0.282000,0.281800,0.281700,0.281600,0.281600,0.281500,0.281500,0.280700,0.280500,0.280400,0.280500,0.280700,0.280600,0.280600,0.280400,0.280400,0.280200,0.280100,0.279800,0.279600,0.279400,0.279400,0.279300,0.279200,0.277900,0.277900,0.277900,0.277900,0.277800,0.277800,0.277700,0.277700,0.277700,0.277700,0.277800,0.277900,0.276800,0.276600,0.276600,0.276600,0.276500,0.276400,0.276200,0.275400,0.275400,0.275400,0.275400,0.275400,0.275400,0.275400,0.275300,0.275200,0.275000,1.000000,1.000000,1.000000,1.000000,1.000000,1.000000,1.000000,1.000000,1.000000,0.476100,0.476100,0.477200,0.474300,0.476100,0.476100,0.476100,0.476000,0.475600,0.475500,0.475400,0.475300,0.475200,0.475200,0.475100,0.475100,0.475800,0.476000,0.476000,0.475700,0.475600,0.475600,0.474500,0.473500,0.473300,0.473200,0.473200,0.472100,0.471100,0.470900,0.470500,0.470400,0.469000,0.468800,0.469100,0.470700,0.470700,0.470700
1.000000,1.000000,1.000000,1.000000,1.000000,1.000000,1.000000,1.000000,1.000000,0.548200,1.000000,0.548300,0.549400,0.552400,0.552400,0.551200,0.546400,0.546400,0.546400,0.547300,0.548400,0.548500,0.548500,1.000000,1.000000,0.548700,0.546100,0.546000,0.546000,0.545900,0.547300,0.547400,0.546000,0.545400,0.545400,0.543700,1.000000,0.542400,1.000000,1.000000,1.000000,1.000000,1.000000,0.541300,0.541300,0.541300,0.541400,0.542200,0.543400,0.543400,0.541900,0.541700,0.541600,0.541400,0.541400,0.541500,0.541600,1.000000,1.000000,1.000000,1.000000,0.538700,1.000000,0.538600,0.538500,0.538200,0.538100,0.539400,0.539400,0.539300,0.539300,0.539300,0.540700,0.540700,0.539300,0.539300,0.539300,0.538100,0.537600,0.537000,0.536900,0.536900,0.536800,0.536700,0.536500,0.536400,0.535300,0.535300,0.535400,0.535500,0.536500,0.536400,0.536200,0.535800,0.535700,0.534500,0.534400,0.534400,0.534300,0.534200,0.534000,0.533900,0.533800,0.533600,0.533500,0.533400,0.533400,1.000000,0.492000,0.492000,0.492000,0.492400,0.492400,1.000000,0.287400,0.286800,0.286800,0.286700,0.286600,0.286500,0.286300,0.285600,0.285500,0.285400,0.285400,0.285400,0.285400,0.285600,0.285600,0.285600,0.285600,0.285600,0.285600,0.285600,0.285600,0.285500,0.284500,0.284500,0.284500,0.284600,0.284600,0.284600,0.284500,0.284400,0.283400,0.283300,0.283300,0.283200,0.283200,0.283200,0.283200,0.283200,0.283100,0.282400,0.282300,0.282200,0.282000,0.281900,0.281700,0.281700,0.281700,0.281600,0.281600,0.281500,0.281500,0.281300,0.281100,0.280800,0.280700,0.280600,0.280500,0.280400,0.280300,0.280200,0.279800,0.279700,0.279400,0.279300,0.279200,0.278600,0.278000,0.278000,0.278000,0.278000,0.278000,0.277800,0.277700,0.277700,0.277700,0.277800,0.278100,0.278200,0.278200,0.277900,0.277800,0.276900,0.276800,0.276600,0.276500,0.276300,0.275500,0.275500,0.275600,0.275600,0.275600,0.275500,0.275400,0.275200,1.000000,1.000000,1.000000,1.000000,1.000000,0.352600,1.000000,0.351300,0.351300,1.000000,0.477200,0.477200,0.477200,0.477100,0.477000,0.476700,0.476600,0.476400,0.475800,0.475700,0.475500,0.475400,0.475300,0.475200,0.475100,0.475100,0.476100,0.476200,0.476100,0.475800,0.475700,0.475600,0.474700,0.473700,0.473400,0.473300,0.470800,0.470600,0.470400,0.470000,0.469700,0.469300,0.469200,0.469100,0.469200,0.470700,0.470700,0.470700
0.552000,1.000000,1.000000,1.000000,1.000000,1.000000,1.000000,1.000000,1.000000,0.548400,0.548400,0.548500,0.548800,0.550700,0.550700,0.550900,0.547800,0.547800,1.000000,0.548300,0.548400,0.548500,1.000000,1.000000,1.000000,0.548700,0.548700,0.547200,0.547200,0.547200,0.547300,0.546500,0.545400,0.545400,0.545400,0.544100,0.543900,1.000000,1.000000,1.000000,1.000000,1.000000,1.000000,0.541200,0.541200,0.541200,0.543600,0.543500,0.543500,0.541900,0.540800,0.541600,0.541600,0.541500,0.541500,0.541500,0.541500,0.541700,0.541800,0.541800,0.541700,0.541300,0.539100,0.538600,0.538600,0.538400,0.538400,0.539400,0.539300,0.539300,0.539300,0.539300,0.538100,0.539200,0.539200,0.539200,0.538600,0.537800,0.537700,0.537000,0.536900,0.536800,0.536700,0.536700,0.536500,0.536500,0.535300,0.535300,0.535400,0.535500,0.536500,0.536400,0.536200,0.535800,0.535700,0.534400,0.534300,0.534200,0.534200,0.535100,0.535100,0.535100,0.533800,0.533600,0.533500,0.533400,0.533300,1.000000,0.491900,0.491900,0.491900,0.492200,0.492100,0.492100,0.287400,0.287000,0.286800,0.286700,0.286600,0.286500,0.286400,0.285600,0.285500,0.285400,0.285400,0.286000,0.285800,0.285700,0.285600,0.285600,0.285600,0.285600,0.285600,0.285600,0.285600,0.285500,0.284500,0.284500,0.284600,0.284600,0.284600,0.284600,0.284500,0.284400,0.283500,0.283400,0.283300,0.283300,0.283300,0.283300,0.283300,0.283300,0.283200,0.282700,0.282400,0.282200,0.282000,0.282000,0.281800,0.281800,0.281800,0.281800,0.281700,0.281600,0.281600,0.281400,0.281300,0.281200,0.280700,0.280700,0.280500,0.280500,0.280400,0.280300,0.280100,0.279800,0.279400,0.279300,0.279200,0.278800,0.278200,0.278200,0.278200,0.278200,0.278200,0.278100,0.277800,0.277800,0.277900,0.278000,0.278200,0.278200,0.278200,0.278100,0.277900,0.277500,0.277200,0.277000,0.276900,0.276700,0.275700,0.275600,0.275700,0.275700,0.275600,0.275500,0.275400,0.275300,1.000000,1.000000,1.000000,1.000000,1.000000,1.000000,1.000000,0.351200,1.000000,1.000000,0.478100,0.478100,0.477200,0.477100,0.477000,0.476800,0.476700,0.476600,0.476400,0.476100,0.475700,0.475600,0.475400,0.475200,0.475200,0.475200,0.476400,0.476300,0.476300,0.476000,0.475800,0.475600,0.475600,0.475000,0.473500,0.472100,0.470700,0.470600,0.470400,0.470000,0.469800,0.469500,0.469300,0.469300,0.470700,0.470700,0.470700,0.469900
0.552000,1.000000,1.000000,1.000000,1.000000,1.000000,1.000000,1.000000,1.000000,0.548500,0.548600,0.548600,0.548800,0.550300,0.550500,0.549600,0.549600,1.000000,1.000000,1.000000,0.547100,0.546100,0.546000,1.000000,0.547700,0.548700,0.548700,0.548700,0.547200,0.547200,0.546300,0.545400,0.545300,0.545300,0.544200,0.544200,0.544100,0.544000,1.000000,1.000000,1.000000,1.000000,0.543000,0.541300,0.540700,0.540700,0.543600,0.543500,0.541800,0.540700,0.540100,0.540700,0.541600,0.541600,0.541600,0.541500,0.541500,0.541500,0.541700,0.541700,0.541600,0.541400,0.541000,0.539000,0.538700,0.539000,0.539300,0.539400,0.539300,0.539300,0.539300,0.538000,0.538100,0.538400,0.539000,0.538900,0.538400,0.537900,0.537800,0.537600,0.536900,0.536800,0.536800,0.536700,0.536500,0.536400,0.535500,0.535400,0.535500,0.535600,0.536400,0.536400,0.536100,0.535800,0.535800,0.534200,0.533900,0.533900,0.534000,0.535200,0.535100,0.535100,0.534000,0.533700,0.533500,0.533400,0.533300,1.000000,1.000000,0.491800,0.491800,0.491900,0.491900,0.491900,1.000000,0.287000,0.286800,0.286700,0.286700,0.286600,0.286500,0.285700,0.285600,0.285500,0.285600,0.286500,0.286000,0.285800,0.285700,0.285700,0.285600,0.285600,0.285600,0.285600,0.285600,0.285500,0.284600,0.284600,0.284600,0.284600,0.284600,0.284600,0.284400,0.284400,0.283500,0.283400,0.283400,0.283300,0.283300,0.283300,0.283300,0.283300,0.283100,0.282800,0.282400,0.282300,0.282100,0.282000,0.281900,0.281900,0.281800,0.281800,0.281700,0.281600,0.281600,0.281400,0.281400,0.281300,0.280700,0.280700,0.280500,0.280500,0.280400,0.280400,0.280200,0.279800,0.279400,0.279200,0.279100,0.278800,0.278600,0.278200,0.278200,0.278300,0.278200,0.278200,0.278000,0.278000,0.278000,0.278000,0.278100,0.278200,0.278200,0.278100,0.277800,0.277500,0.277400,0.277200,0.277100,0.277000,0.276300,0.275900,0.275800,0.275700,0.275700,0.275500,0.275500,0.275300,1.000000,1.000000,1.000000,1.000000,1.000000,1.000000,1.000000,1.000000,1.000000,1.000000,0.478100,0.478100,0.477100,0.477000,0.477000,0.476800,0.476800,0.476700,0.476700,0.477000,0.477100,0.476800,0.475700,0.475200,0.475200,0.476600,0.476500,0.476400,0.476300,0.476000,0.475800,0.475600,0.475500,0.474900,0.473500,0.472100,0.470800,0.470600,0.470400,0.470000,0.469900,0.469600,0.469400,0.470200,0.470700,0.470700,0.470700,0.469900
1.000000,1.000000,1.000000,1.000000,1.000000,1.000000,1.000000,1.000000,1.000000,0.548600,0.548700,0.548700,0.548800,1.000000,0.548900,1.000000,0.549600,0.549600,1.000000,0.547100,1.000000,0.542900,0.542900,0.545200,0.545500,0.547700,0.547500,0.547300,0.547200,0.546000,0.545200,0.545300,0.544400,0.544300,0.544200,0.544200,0.544200,0.545100,0.545100,1.000000,1.000000,1.000000,0.543000,0.541300,0.540600,0.540500,0.543400,0.543200,0.540000,0.540000,0.540100,0.540400,0.541600,0.541600,0.541600,0.541500,0.541400,0.541300,0.541400,0.541600,0.541600,0.541300,0.541100,0.540900,0.540500,0.539400,0.539400,0.539400,1.000000,0.537800,0.537800,0.537900,0.538000,0.538100,0.538800,0.538800,0.538600,0.538000,0.537900,0.537800,0.538800,0.538700,0.538300,0.538100,0.536500,0.536100,0.535800,0.535600,0.535700,0.536000,0.536200,0.536200,0.536100,0.535900,0.535800,0.533700,0.533800,0.533800,0.533800,0.535200,0.535100,0.534600,0.534400,0.534000,0.533600,0.533300,0.533300,1.000000,0.491700,0.491700,0.491600,0.491600,0.491600,0.491700,1.000000,0.287100,0.286900,0.286800,0.286800,0.286700,0.286700,0.286700,0.286800,0.286800,0.286700,0.286600,0.286300,0.286100,0.285800,0.285800,0.285700,0.285700,0.285700,0.285700,0.285700,0.285600,0.285600,0.284600,0.284600,0.284600,0.284600,0.284500,0.284400,0.284400,0.283700,0.283500,0.283500,0.283400,0.283300,0.283200,0.283200,0.283200,0.283000,0.282800,0.282500,0.282400,0.282200,0.282100,0.282000,0.282000,0.281800,0.281800,0.281700,0.281600,0.281600,0.281400,0.281300,0.281200,0.280700,0.280700,0.280600,0.280500,0.280500,0.280400,0.280300,0.280000,0.279300,0.279200,0.279100,0.278800,0.278700,0.278400,0.278300,0.278300,0.278300,0.278200,0.278100,0.278000,0.278000,0.278000,0.278100,0.278100,0.278100,0.278000,0.277800,0.277600,0.277400,0.277200,0.277200,0.277100,0.276800,0.276700,0.275900,0.275800,0.275800,0.275600,0.275500,0.275300,0.274100,0.272900,1.000000,1.000000,1.000000,1.000000,1.000000,1.000000,1.000000,1.000000,0.477000,0.477000,0.477000,0.477000,0.477000,0.476900,0.476800,0.476800,0.476800,0.477000,0.477100,0.477200,0.477100,0.476300,0.476600,0.476600,0.476500,0.476400,0.475000,0.474800,0.474700,0.474800,0.474900,0.473500,0.472200,0.472200,0.471100,0.470800,0.470500,0.470000,0.470000,0.469800,0.470000,0.470400,0.470700,0.470800,0.470700,0.469900
1.000000,1.000000,1.000000,1.000000,1.000000,1.000000,1.000000,0.548200,0.548200,0.548400,0.548700,0.548800,0.548800,1.000000,1.000000,0.549800,0.550100,0.550800,1.000000,1.000000,1.000000,1.000000,1.000000,0.544000,0.545300,1.000000,1.000000,0.545900,1.000000,1.000000,0.545100,0.544900,0.544400,0.544400,1.000000,0.544300,0.544700,0.544900,1.000000,1.000000,1.000000,1.000000,1.000000,1.000000,0.541500,0.541500,0.543000,0.543000,0.540000,0.540000,0.540100,0.540400,0.541600,0.541600,0.541600,0.541500,0.539900,0.539900,0.540000,0.540600,0.540800,0.540800,0.541000,0.540900,0.540800,0.539700,0.539400,1.000000,1.000000,1.000000,0.537800,0.537900,0.538000,0.538100,0.538800,0.538800,0.538800,0.538000,0.538900,0.538900,0.538900,0.538800,0.538700,0.538400,0.537900,0.536000,0.536000,0.536000,0.536000,0.536100,0.536200,0.536200,0.536100,0.536100,0.536000,0.533700,0.533700,0.533700,0.533700,0.535200,0.535100,0.534600,0.534500,0.534500,0.534500,0.534400,0.534300,1.000000,0.491600,1.000000,0.491600,0.491500,0.491000,0.491000,1.000000,0.287100,0.286900,0.286900,0.286800,0.286800,0.286800,0.286800,0.286800,0.286800,0.286800,0.286700,0.286400,0.286200,0.285900,0.285900,0.285800,0.285800,0.285800,0.285700,0.285700,0.285700,0.285700,0.284700,0.284600,0.284600,0.284600,0.284500,0.284400,0.284400,0.284000,0.283600,0.283500,0.283300,0.283200,0.283100,0.283100,0.283100,0.283000,0.282800,0.282600,0.282400,0.282300,0.282200,0.282200,0.282100,0.282000,0.281800,0.281800,0.281600,0.281500,0.281400,0.281200,0.281000,0.280700,0.280700,0.280600,0.280600,0.280600,0.280400,0.280400,0.280200,0.279200,0.279200,0.279100,0.278800,0.278700,0.278500,0.278400,0.278300,0.278200,0.278200,0.278000,0.278000,0.277900,0.277800,0.277700,0.277600,0.277500,0.277400,0.277300,0.277300,0.277200,0.277200,0.277100,0.277000,0.276800,0.276800,0.276000,0.275800,0.275800,0.275600,0.275400,0.275200,0.274200,0.274100,1.000000,1.000000,1.000000,1.000000,1.000000,1.000000,0.349800,1.000000,0.475800,0.475800,0.477000,0.477000,0.477000,0.477000,0.477100,0.477000,0.477100,0.477200,0.477200,0.477200,0.477200,0.476800,0.476700,0.476600,0.476400,0.475000,0.474900,0.474700,0.473600,0.473500,0.473500,0.473500,0.472300,0.472300,0.472200,0.471400,0.470700,0.470200,0.470100,0.470100,0.470200,0.470500,0.470800,0.470800,0.470800,0.470400
1.000000,1.000000,1.000000,1.000000,0.549900,1.000000,1.000000,1.000000,0.548200,0.548200,0.548700,0.548700,0.548700,0.548600,0.548500,0.549900,0.549900,0.549900,1.000000,1.000000,1.000000,1.000000,1.000000,0.543000,1.000000,1.000000,1.000000,0.546100,0.546000,0.545800,0.545000,0.544800,0.544100,0.543400,1.000000,0.544500,0.544700,0.544800,1.000000,1.000000,1.000000,1.000000,1.000000,0.542700,0.542700,0.542800,0.543000,0.543000,0.540400,0.540300,0.540400,0.540600,0.541500,0.541600,0.541600,0.541600,0.539900,1.000000,1.000000,0.540700,0.540700,0.540800,0.540900,0.540900,0.540800,0.540200,0.539800,0.539400,1.000000,0.537700,0.537800,0.537800,0.538000,0.538000,0.538900,0.538900,0.540300,0.540200,0.540200,0.539000,0.538900,0.538800,0.538700,0.538400,0.537900,0.536000,0.536000,0.536000,0.536100,0.536100,0.536200,0.536200,0.536200,0.536100,0.536100,0.535100,0.533700,0.533700,0.535200,0.535200,0.534500,0.534500,0.534500,0.534500,0.534500,0.534400,0.534400,1.000000,1.000000,0.491600,0.491500,0.491300,0.491100,0.491100,1.000000,0.287800,0.287700,0.287600,0.287400,0.287100,0.287000,0.287000,0.287000,0.287000,0.286900,0.286800,0.286500,0.286400,0.286100,0.286000,0.286000,0.285900,0.285800,0.285800,0.285800,0.285700,0.285700,0.284700,0.284700,0.284700,0.284600,0.284600,0.284400,0.284400,0.284300,0.284000,0.283600,0.283100,0.283000,0.282900,0.282900,0.282900,0.282900,0.282800,0.282600,0.282500,0.282400,0.282300,0.282200,0.282200,0.282000,0.281900,0.281800,0.281500,0.281400,0.281100,0.280900,0.280800,0.280700,0.280700,0.280600,0.280600,0.280600,0.280500,0.280400,0.280300,0.279400,0.279100,0.279000,0.278800,0.278700,0.278500,0.278400,0.278300,0.278200,0.278100,0.278000,0.277900,0.277800,0.277700,0.277700,0.277500,0.277400,0.277400,0.277200,0.277200,0.277200,0.277100,0.277100,0.277000,0.276800,0.276800,0.276600,0.275900,0.275800,0.275600,0.275400,0.275200,0.275200,1.000000,1.000000,1.000000,1.000000,1.000000,0.350900,0.350900,1.000000,0.475800,0.475800,0.475800,0.477000,0.477000,0.478000,0.478000,0.478000,0.477200,0.477200,0.477200,0.477200,0.477200,0.477200,0.476300,0.476300,0.475900,0.475200,0.475000,0.474300,0.473700,0.473600,0.473500,0.473500,0.473500,0.472300,0.472300,0.472200,0.470400,0.470300,0.470200,0.470200,0.471300,0.471300,0.471200,0.471200,0.472400,0.472400,0.471000
0.549700,0.550000,1.000000,0.550100,0.550000,0.547000,0.546500,1.000000,0.546700,0.548000,0.548700,0.548700,0.548700,1.000000,0.548500,0.547600,0.546800,0.546800,1.000000,1.000000,1.000000,1.000000,1.000000,1.000000,1.000000,1.000000,1.000000,0.546200,0.546200,0.545700,0.545100,0.545100,0.544100,0.544100,1.000000,1.000000,0.544700,0.544700,1.000000,1.000000,1.000000,1.000000,1.000000,1.000000,0.542800,0.542800,0.543000,0.543000,0.541000,0.540500,0.540500,0.540600,0.541600,0.541600,0.541600,0.541600,0.539800,1.000000,1.000000,0.538800,0.539700,0.540600,0.540800,0.541400,0.540600,0.540200,0.540000,0.539800,0.539000,0.538900,0.538800,0.538700,0.538500,0.539100,0.541400,0.541400,0.541400,0.540200,0.540200,0.537900,0.537900,0.537900,0.538400,0.537900,0.537800,0.537800,0.537800,0.536200,0.536200,0.536100,0.536100,0.536100,0.536200,0.536300,0.536200,0.535300,0.535300,0.535300,0.535200,0.535200,0.534400,0.534400,0.534400,0.534500,0.534500,0.534400,0.534400,1.000000,0.491800,0.491700,0.491500,0.491300,0.491000,0.491000,1.000000,0.287900,0.287800,0.287700,0.287600,0.287300,0.287200,0.287000,0.287000,0.287000,0.286900,0.286800,0.286600,0.286500,0.286300,0.286100,0.286000,0.285900,0.285900,0.285800,0.285700,0.285700,0.285700,0.285700,0.285700,0.285500,0.284700,0.284600,0.284400,0.284300,0.284200,0.284200,0.284000,0.283100,0.282900,0.282900,0.282900,0.282900,0.282800,0.282800,0.282600,0.282400,0.282400,0.282400,0.282300,0.282300,0.282100,0.282000,0.281800,0.281500,0.281400,0.281100,0.281000,0.280800,0.280700,0.280700,0.280600,0.280600,0.280600,0.280400,0.280400,0.280300,0.280200,0.280000,0.279000,0.278800,0.278700,0.278400,0.278300,0.278200,0.278100,0.278000,0.277900,0.277800,0.277800,0.277700,0.277600,0.277500,0.277400,0.277300,0.277200,0.277200,0.277100,0.277100,0.277000,0.277000,0.276800,0.276700,0.276600,0.276500,0.275900,0.275600,0.275500,0.275200,0.275200,0.275100,0.275100,1.000000,0.480100,1.000000,0.350900,0.350900,1.000000,0.475700,0.477100,0.477100,0.477800,0.478100,0.478200,0.478200,0.478200,0.478200,0.477300,0.477300,0.477200,0.477200,0.477200,0.476200,0.476200,0.475800,0.475200,0.475200,0.474000,0.473700,0.473700,0.473600,0.473600,0.473600,0.472300,0.472300,0.472200,0.470400,0.470400,0.470300,0.471300,0.471300,0.471400,0.471400,0.471500,0.472400,0.472400,0.472400
1.000000,0.549400,1.000000,0.550700,1.000000,0.550600,1.000000,1.000000,1.000000,0.547700,0.547800,0.548700,0.547300,0.546900,0.546800,0.546800,0.546800,0.546800,1.000000,0.553200,1.000000,0.544500,0.544500,0.541000,0.541000,0.545100,0.546300,0.546300,0.546300,0.545100,0.545000,0.545100,0.544400,0.543900,0.543900,0.543800,0.543800,0.545900,0.545900,1.000000,1.000000,1.000000,1.000000,0.546500,1.000000,1.000000,0.543000,0.543000,0.543200,0.542100,0.541800,0.541700,0.541600,0.541600,0.541600,0.541700,1.000000,1.000000,1.000000,0.539000,0.539000,0.540000,0.541700,0.541700,0.541700,1.000000,0.540000,0.539900,0.539900,0.539900,0.538900,0.538900,0.540200,0.541000,0.541300,0.541400,0.540200,0.539400,0.538100,0.537900,0.537900,0.537900,0.537800,0.537800,0.537800,0.537800,0.537800,0.536200,0.536200,0.536100,0.536100,0.536100,0.536200,0.536400,0.536400,0.535400,0.535400,0.535300,0.534400,0.534300,0.534300,0.534400,0.534400,0.534400,0.534400,0.534300,0.534300,1.000000,0.492300,0.492100,0.491900,0.492300,0.492300,0.492300,1.000000,0.288000,0.287900,0.287800,0.287700,0.287400,0.287400,0.287200,0.287200,0.287100,0.287000,0.286900,0.286800,0.286700,0.286500,0.286400,0.286200,0.286000,0.285900,0.285700,0.285700,0.285700,0.285700,0.285800,0.285700,0.285700,0.285500,0.285000,0.284200,0.284200,0.284200,0.284100,0.284000,0.283700,0.282900,0.282800,0.282800,0.282800,0.282700,0.282700,0.282400,0.282400,0.282400,0.282300,0.282300,0.282300,0.282100,0.282000,0.281800,0.281500,0.281400,0.281100,0.281000,0.280900,0.280700,0.280700,0.280600,0.280600,0.280500,0.280400,0.280400,0.280200,0.280100,0.280000,0.279700,0.278800,0.278700,0.278400,0.278300,0.278200,0.278000,0.278000,0.277900,0.277800,0.277800,0.277700,0.277600,0.277500,0.277400,0.277300,0.277200,0.277200,0.277200,0.277200,0.277100,0.277000,0.276800,0.276700,0.276600,0.276600,0.276500,0.276400,0.276400,0.276300,0.276200,0.275800,0.480100,0.480100,0.480100,1.000000,1.000000,0.351000,1.000000,0.477300,0.478700,0.479000,0.479000,0.478200,0.478200,0.478200,0.478200,0.478300,0.477500,0.477300,0.477200,0.477000,0.476200,0.476100,0.476100,0.476100,0.475400,0.475300,0.475200,0.473800,0.473700,0.473600,0.473700,0.473700,0.472400,0.472300,0.472200,0.472100,0.472200,0.472400,0.471500,0.471500,0.471500,0.471600,0.471600,0.472200,0.472300,0.472300
0.549200,0.549100,1.000000,0.550800,1.000000,0.550600,0.550600,1.000000,1.000000,0.547000,0.547300,0.547500,0.545500,0.545500,0.546800,0.546800,0.546800,0.546800,1.000000,0.553200,1.000000,0.544500,0.544500,0.541000,0.541000,0.545100,1.000000,0.546400,0.545100,0.544800,0.543300,0.545000,0.543900,0.543900,0.543900,0.543900,0.543800,0.545900,0.545900,0.546000,1.000000,1.000000,1.000000,0.546500,1.000000,1.000000,1.000000,1.000000,1.000000,0.543400,1.000000,0.543300,0.541600,0.541700,0.541700,0.541800,1.000000,1.000000,0.539000,0.539000,0.539000,0.540000,0.541800,0.541800,0.541800,0.540100,0.540000,0.539900,0.539900,0.540000,0.540000,0.540100,0.540300,0.541200,0.541300,0.539400,0.539400,0.539400,0.538100,0.538000,0.537900,0.537900,0.537800,0.537800,0.537800,0.537800,0.537800,0.537800,0.536200,0.536100,0.536100,0.536100,0.537400,0.536500,0.536600,0.536000,0.535500,0.535400,0.534400,0.534300,0.534300,0.534400,0.534400,0.534300,0.534300,0.534300,1.000000,1.000000,1.000000,0.492400,0.492400,0.492400,0.492300,0.492300,1.000000,0.288100,0.288000,0.287900,0.287800,0.287600,0.287400,0.287300,0.287300,0.287200,0.287000,0.287000,0.286900,0.286800,0.286700,0.286600,0.286200,0.285900,0.285900,0.285700,0.285700,0.285700,0.285700,0.285800,0.285800,0.285700,0.285500,0.284200,0.284200,0.284200,0.284100,0.284100,0.284000,0.283800,0.282900,0.282800,0.282800,0.282800,0.282700,0.282600,0.282400,0.282400,0.282400,0.282300,0.282300,0.282200,0.282100,0.282000,0.281800,0.281600,0.281400,0.281200,0.281100,0.280900,0.280800,0.280700,0.280600,0.280600,0.280500,0.280400,0.280400,0.280300,0.280100,0.280000,0.279700,0.279600,0.278700,0.278400,0.278300,0.278200,0.278000,0.278000,0.277900,0.277800,0.277800,0.277700,0.277700,0.277500,0.277500,0.277400,0.277300,0.277200,0.277200,0.277200,0.277200,0.277000,0.276800,0.276700,0.276600,0.276600,0.276500,0.276500,0.276400,0.276300,0.276300,1.000000,0.480100,0.480100,0.480100,1.000000,1.000000,0.351000,1.000000,0.477500,0.479000,0.479000,0.479100,0.479100,0.478300,0.478300,0.478500,0.478400,0.478300,0.478200,0.477200,0.476600,0.476200,0.476100,0.476100,0.476100,0.476100,0.476000,0.475200,0.475100,0.473800,0.473700,0.474600,0.474600,0.474600,0.474600,0.472900,0.473200,0.473200,0.472700,0.472600,0.471600,0.471600,0.471700,0.471700,0.472000,0.472100,0.471600
0.548200,0.548200,0.548900,0.551000,1.000000,0.550700,0.550600,0.550600,0.550600,0.545500,0.545400,0.545400,0.545400,0.545500,0.545600,0.546800,0.548200,0.548100,1.000000,1.000000,0.547200,0.545900,0.545900,0.545400,0.545200,0.545100,0.545100,1.000000,1.000000,0.543200,1.000000,0.543300,0.543500,0.543800,0.543900,0.543900,0.544900,0.545100,0.545900,0.545900,0.546000,0.546200,1.000000,1.000000,0.546500,0.546500,0.546600,0.546600,0.544000,0.543400,0.543300,0.543300,0.541700,0.541700,0.541700,0.541800,0.541900,0.542000,0.540500,0.539100,0.539100,0.540100,0.541800,0.541800,0.541800,0.540300,0.539600,0.539500,0.539500,0.540000,0.540100,0.540200,0.540200,0.541200,0.541300,0.539400,0.539400,0.539400,0.539400,0.538100,0.538000,0.538000,0.537900,0.537900,0.537900,0.537900,0.537800,0.536900,0.536000,0.536000,0.536400,0.537600,0.537600,0.537500,0.536900,0.536800,0.536600,0.536000,0.535300,0.534400,0.534400,0.534400,0.534400,0.534300,0.534300,0.534200,0.534200,1.000000,1.000000,0.492600,0.492500,0.492400,0.492400,0.490800,1.000000,0.288200,0.288100,0.287900,0.287800,0.287600,0.287600,0.287400,0.287400,0.287300,0.287100,0.287000,0.287000,0.286900,0.286800,0.286800,0.286200,0.285900,0.285800,0.285700,0.285700,0.285700,0.285700,0.285800,0.285700,0.285700,0.285400,0.284200,0.284200,0.284200,0.284100,0.284100,0.284000,0.283900,0.282900,0.282900,0.282800,0.282800,0.282700,0.282600,0.282400,0.282400,0.282400,0.282300,0.282300,0.282200,0.282100,0.282000,0.281800,0.281600,0.281500,0.281300,0.281200,0.281000,0.280800,0.280700,0.280700,0.280600,0.280600,0.280500,0.280400,0.280300,0.280200,0.280100,0.279800,0.279700,0.278700,0.278400,0.278300,0.278200,0.278100,0.278000,0.277900,0.277900,0.277800,0.277800,0.277700,0.277600,0.277500,0.277500,0.277300,0.277300,0.277300,0.277300,0.277300,0.277100,0.276800,0.276700,0.276600,0.276600,0.276600,0.276500,0.276500,0.276400,1.000000,1.000000,1.000000,1.000000,1.000000,1.000000,0.353400,0.352100,1.000000,0.477900,0.477900,0.479100,0.479100,0.479100,1.000000,0.478900,0.478800,0.478700,0.478300,0.478300,0.477100,0.476400,0.475900,0.475300,0.475200,0.476100,0.476100,0.476100,0.475100,0.474900,0.474600,0.474600,0.474600,0.474600,0.474600,0.474500,0.474400,0.473400,0.473200,0.472900,0.472700,0.471700,0.471700,0.471700,0.471800,0.472000,0.471900,0.471600
0.548300,0.548300,0.548800,0.550900,1.000000,0.550600,0.550600,0.550600,0.547900,0.545400,0.545400,0.545400,0.545400,0.545500,0.546800,0.548300,0.548200,0.548200,0.548200,0.546000,0.546000,1.000000,1.000000,0.546100,0.545200,0.545100,0.545100,0.544800,0.544700,0.543200,0.543100,0.543200,0.543200,0.543600,0.544800,0.545000,0.545100,0.545900,0.545900,0.545900,0.546000,0.546300,0.546400,0.546500,0.546500,0.546500,0.546600,0.543900,0.543400,0.543400,1.000000,1.000000,1.000000,0.541700,0.541800,0.541900,0.542000,0.542000,0.540600,0.540500,0.540400,0.540200,0.540200,0.541900,0.541900,0.541000,0.539400,0.539400,0.539300,0.540100,0.540200,0.540200,0.540200,0.540100,0.540000,0.539300,0.539400,0.539400,0.539500,0.538200,0.538100,0.538100,0.538000,0.538000,0.537900,0.537900,0.537900,0.536900,0.536000,0.536000,0.536900,0.537700,0.537600,0.537500,0.537000,0.536900,0.536800,0.536700,0.535300,0.535000,0.534500,0.534600,0.534400,0.536100,0.536100,0.536000,0.535900,0.534200,0.492800,0.492700,0.492600,0.492500,0.492400,0.491000,1.000000,0.288400,0.288300,0.288000,0.287900,0.287700,0.287700,0.287700,0.287600,0.287400,0.287200,0.287100,0.287000,0.287000,0.286900,0.286900,0.286900,0.285900,0.285800,0.285700,0.285700,0.285700,0.285800,0.285800,0.285600,0.285400,0.285200,0.284200,0.284200,0.284200,0.284100,0.284100,0.284000,0.284000,0.282900,0.282900,0.282800,0.282800,0.282700,0.282600,0.282500,0.282400,0.282400,0.282400,0.282400,0.282300,0.282100,0.282000,0.281800,0.281700,0.281600,0.281300,0.281200,0.281100,0.280900,0.280800,0.280800,0.280800,0.280800,0.280800,0.280900,0.281100,0.280800,0.280600,0.280200,0.280000,0.279600,0.278400,0.278400,0.278300,0.278200,0.278100,0.278000,0.278000,0.277900,0.277800,0.277800,0.277700,0.277600,0.277600,0.277500,0.277400,0.277400,0.277500,0.277500,0.277500,0.277500,0.276700,0.276600,0.276600,0.276600,0.276500,0.276500,0.276400,0.276400,1.000000,1.000000,1.000000,1.000000,0.353500,0.353500,0.353400,1.000000,0.477900,1.000000,1.000000,1.000000,1.000000,1.000000,1.000000,1.000000,1.000000,0.478300,0.478300,0.476500,0.475700,0.474200,0.474100,0.473200,0.473300,0.475200,0.474400,0.474600,0.474600,0.474600,0.474600,0.474600,0.474600,0.474500,0.474400,0.474000,0.473500,0.473400,0.473100,0.472800,0.472300,0.472000,0.471900,0.471900,0.472000,0.471900,0.471800
0.549900,0.549900,0.551000,0.551900,0.551900,0.550600,0.550600,0.549500,0.546700,0.545400,0.545400,1.000000,1.000000,1.000000,0.548600,0.548600,0.548500,0.548400,0.546100,0.546000,0.546000,0.546000,0.546000,0.546200,0.546200,0.545100,0.544000,0.544000,0.544700,0.544600,1.000000,0.543200,1.000000,0.544600,0.547700,0.545100,0.545700,0.545800,0.545900,0.545900,0.546000,0.547200,0.546500,0.546500,0.546500,0.543600,0.543600,0.543500,0.543400,0.543400,1.000000,1.000000,0.542900,0.541900,0.541900,0.542100,0.542000,0.542000,0.540600,0.540500,0.540400,0.540200,0.540200,0.540200,0.542000,0.541800,0.539300,0.539300,0.539300,0.540200,0.540400,0.540400,0.540300,0.539000,0.539200,0.539300,0.539400,0.539400,0.539500,0.539500,0.538400,0.538300,0.538200,0.538200,0.538100,0.538000,0.538000,0.538000,0.536900,0.536900,0.537900,0.537900,0.537600,0.537500,0.537200,0.537000,0.536900,0.536800,0.536600,0.536400,0.536200,0.536200,0.536200,0.536100,0.536100,0.535900,0.535900,1.000000,0.492800,0.492800,0.492700,0.492600,0.492400,0.491000,1.000000,0.288400,0.288400,0.287900,0.287800,0.287700,0.287800,0.287700,0.287700,0.287500,0.287100,0.287000,0.286900,0.286900,0.286900,0.286900,0.286800,0.286700,0.285900,0.285800,0.285800,0.285900,0.285900,0.285800,0.285500,0.285300,0.285100,0.284500,0.284400,0.284300,0.284200,0.284200,0.284200,0.284100,0.284000,0.283800,0.283700,0.283600,0.283400,0.283200,0.282800,0.282800,0.282900,0.282600,0.282600,0.282500,0.282400,0.282100,0.281900,0.281700,0.281600,0.281400,0.281300,0.281300,0.281200,0.281200,0.281100,0.281000,0.281000,0.281000,0.281100,0.281100,0.281000,0.280800,0.280700,0.280600,0.279600,0.279500,0.278400,0.278400,0.278200,0.278200,0.278100,0.278000,0.278000,0.277900,0.277800,0.277800,0.277700,0.277600,0.277500,0.277500,0.277500,0.277500,0.277600,0.277500,0.277500,0.276700,0.276700,0.276700,0.276600,0.276500,0.276500,0.276400,0.276400,1.000000,1.000000,0.355300,0.353600,0.353500,0.353500,0.353400,1.000000,1.000000,1.000000,1.000000,0.362500,0.362500,0.362600,1.000000,1.000000,1.000000,1.000000,1.000000,1.000000,1.000000,1.000000,1.000000,1.000000,1.000000,1.000000,1.000000,0.474500,0.474500,0.473800,0.473800,0.473800,0.474300,0.474300,0.474200,0.473700,0.473600,0.473500,0.473200,0.473000,0.472300,0.472100,0.472000,0.472000,0.472000,0.472000,0.471800
0.549900,0.549900,0.550000,0.551400,0.550700,0.548000,0.548000,0.547900,0.546900,0.546800,0.546900,1.000000,1.000000,1.000000,0.548800,0.548700,0.548600,0.548600,0.546200,0.546100,0.546100,0.546100,0.547000,0.547100,0.546300,0.544800,0.542700,0.542700,0.544500,0.544600,0.544500,1.000000,0.544600,0.547800,1.000000,0.548000,0.548100,1.000000,0.548400,0.548400,0.548200,0.548200,0.546600,0.546300,0.544600,0.542300,0.542300,0.542300,1.000000,1.000000,1.000000,1.000000,0.542800,0.542800,0.542800,0.544300,0.544300,1.000000,0.540800,0.540800,0.540700,0.540200,1.000000,1.000000,1.000000,0.540600,0.540200,0.539400,0.539400,0.539700,0.540500,0.540400,0.538900,0.539000,0.539100,0.539200,0.539200,0.539300,0.539400,0.539400,0.538400,0.538400,0.538300,0.538200,0.538100,0.538100,0.538000,0.537900,0.537900,0.538000,0.538000,0.538000,0.537600,0.537500,0.537200,0.537100,0.537000,0.537000,0.536700,0.536500,0.536300,0.536200,0.536200,0.536100,0.536100,0.535900,1.000000,1.000000,0.493300,0.493100,0.492900,0.492800,0.492600,0.492400,1.000000,0.288400,0.288300,0.287700,0.287600,0.287600,0.287700,0.287800,0.287800,0.287100,0.287000,0.286900,0.286800,0.286800,0.286800,0.286800,0.286800,0.286700,0.286500,0.286100,0.286000,0.286000,0.285900,0.285800,0.285400,0.285300,0.285200,0.284800,0.284400,0.284400,0.284300,0.284300,0.284200,0.284100,0.284000,0.283900,0.283800,0.283700,0.283500,0.283400,0.283300,0.283300,0.283300,0.283100,0.282800,0.282600,0.282500,0.282400,0.282000,0.281700,0.281600,0.281400,0.281400,0.281400,0.281400,0.281400,0.281300,0.281200,0.281200,0.281100,0.281100,0.281100,0.281000,0.280900,0.280700,0.280700,0.280600,0.279400,0.279300,0.278500,0.278400,0.278300,0.278200,0.278100,0.278100,0.278000,0.278000,0.277800,0.277800,0.277700,0.277600,0.277600,0.277600,0.277600,0.277600,0.277500,0.277300,0.276900,0.276800,0.276800,0.276700,0.276500,0.276300,0.276200,0.276200,1.000000,0.355400,1.000000,0.353600,0.353600,0.353500,0.353400,1.000000,1.000000,1.000000,0.360500,0.360500,0.362500,0.362500,0.362700,0.362800,0.362800,0.364000,1.000000,0.367600,0.367700,0.367700,1.000000,1.000000,1.000000,1.000000,0.474600,0.474400,0.474400,0.473700,0.473800,0.473800,0.474100,0.474300,0.474200,0.473900,0.473900,0.473800,0.473300,0.473200,0.471900,0.472000,0.472000,0.472000,0.472100,0.472100,1.000000
0.549900,0.550000,0.550000,1.000000,0.548100,0.548000,0.548000,0.547900,0.546900,0.546900,0.549400,1.000000,1.000000,1.000000,0.548900,0.548800,0.548700,0.548700,0.548700,0.546100,0.546200,0.546400,0.547900,0.547400,0.544700,0.544600,0.542700,0.542700,0.544400,0.544800,1.000000,1.000000,1.000000,1.000000,1.000000,0.547900,1.000000,1.000000,1.000000,0.548400,0.548200,0.547300,0.545600,0.544600,0.542300,0.542300,0.542400,0.542400,1.000000,1.000000,1.000000,1.000000,0.542800,0.542800,0.542900,0.544300,0.544300,1.000000,0.542600,0.540900,0.540900,0.540200,1.000000,0.540200,0.540500,0.540600,0.540600,0.539400,0.539500,0.539700,0.540200,0.540200,0.538900,0.539000,0.539100,0.539200,0.539200,0.539200,0.539300,0.539300,0.538600,0.538500,0.538400,0.538300,0.538200,0.538000,0.537900,0.537900,0.537900,0.538000,0.538100,0.538200,0.538300,0.537500,0.537300,0.537200,0.537100,0.537100,0.536800,0.536500,0.536300,0.536200,0.536200,0.536100,0.536000,0.535800,0.535800,1.000000,0.493400,0.493300,0.493000,0.493000,0.492800,0.492600,1.000000,0.288200,0.288000,0.287600,0.287600,0.287600,0.287600,0.287800,0.287800,0.287000,0.286900,0.286900,0.286800,0.286800,0.286800,0.286800,0.286800,0.286700,0.286500,0.286200,0.286100,0.286000,0.286000,0.285900,0.285400,0.285300,0.285200,0.284900,0.284600,0.284400,0.284400,0.284300,0.284300,0.284200,0.284100,0.283900,0.283800,0.283800,0.283600,0.283500,0.283400,0.283400,0.283400,0.283300,0.283000,0.282700,0.282600,0.282400,0.282100,0.281800,0.281700,0.281600,0.281500,0.281500,0.281400,0.281400,0.281300,0.281300,0.281200,0.281100,0.281100,0.281000,0.280900,0.280800,0.280700,0.280600,0.280600,0.279400,0.279400,0.278800,0.278400,0.278400,0.278200,0.278200,0.278100,0.278100,0.278000,0.277900,0.277800,0.277800,0.277600,0.277600,0.277600,0.277600,0.277600,0.277500,0.277300,0.277000,0.276900,0.276800,0.276800,0.276500,0.276200,0.276200,0.276200,1.000000,1.000000,1.000000,0.353500,0.353500,0.352400,0.352500,0.355100,1.000000,1.000000,0.360500,0.359600,0.362500,0.362500,0.362700,0.362800,0.362800,0.364000,0.365900,0.365900,0.367700,0.367700,1.000000,1.000000,1.000000,1.000000,0.474700,0.474400,0.474300,0.473800,0.473800,0.473800,0.474100,0.474300,0.474200,0.474200,0.474200,0.474200,0.473400,0.472600,0.471800,0.471900,0.472000,0.472000,0.472200,0.472200,0.471700
0.551400,0.551400,1.000000,1.000000,0.548100,0.548000,0.548000,0.548000,0.548000,0.549400,0.549400,1.000000,1.000000,1.000000,0.548900,0.548800,0.548800,0.548700,0.548600,0.546800,0.546800,0.548000,0.548400,0.547100,0.544600,0.544600,0.542700,0.542700,0.544200,0.545800,0.546800,0.546300,0.547900,1.000000,0.547900,0.547900,0.548000,0.548200,0.547500,0.545800,0.545600,0.545500,0.544600,0.544600,0.542300,0.542300,0.542400,0.542500,1.000000,1.000000,1.000000,0.542600,0.542500,0.542300,0.542800,0.544300,0.544300,1.000000,0.542700,0.542600,0.541000,0.541000,0.541000,0.540500,0.540600,0.540700,0.540700,0.540800,0.539700,0.539900,0.539900,0.540000,0.539900,0.539500,0.539300,0.539200,0.539200,0.538700,0.539200,0.539200,0.539100,0.539000,0.538600,0.538400,0.538100,0.538000,0.537900,0.537800,0.537900,0.538000,0.538300,0.538400,0.538500,0.538600,0.537300,0.537300,0.537200,0.537200,0.537000,0.536400,0.536300,0.536200,0.536200,0.536100,0.535900,0.535600,0.535600,1.000000,0.493500,0.493400,0.493200,0.493100,0.492900,0.492900,1.000000,0.288000,0.287900,0.287600,0.287600,0.287600,0.287600,0.287700,0.287800,0.287600,0.286900,0.286800,0.286700,0.286700,0.286800,0.286800,0.286800,0.286700,0.286500,0.286300,0.286200,0.286200,0.286000,0.285900,0.285500,0.285400,0.285200,0.285000,0.284700,0.284600,0.284400,0.284400,0.284300,0.284200,0.284200,0.284000,0.284000,0.283900,0.283900,0.284000,0.283800,0.283800,0.283700,0.283400,0.283200,0.282800,0.282700,0.282600,0.282300,0.282200,0.281800,0.281600,0.281600,0.281600,0.281500,0.281400,0.281400,0.281300,0.281200,0.281100,0.281000,0.280800,0.280800,0.280700,0.280600,0.280500,0.280100,0.279500,0.279400,0.279200,0.278700,0.278400,0.278300,0.278200,0.278200,0.278100,0.278100,0.278000,0.277900,0.277800,0.277700,0.277600,0.277600,0.277600,0.277600,0.277500,0.277400,0.277200,0.277100,0.277000,0.276900,0.276800,0.276300,0.276200,0.276200,1.000000,0.355600,0.354700,0.353300,0.352100,0.352000,0.352000,0.353000,0.360400,0.360400,0.359600,0.359600,0.360500,0.362500,0.362600,0.362800,0.362800,0.363900,0.363900,0.364000,0.364900,1.000000,1.000000,1.000000,1.000000,0.476600,0.476600,0.474500,0.474300,0.473800,0.473800,0.474000,0.474300,0.474300,0.474200,0.474200,0.474200,0.474100,0.473600,0.472600,0.471800,0.471900,0.472000,0.472000,0.472200,0.472300,0.471500
