0.473800,0.473800,1.000000,1.000000,0.469500,1.000000,0.469500,0.471000,0.474100,0.474100,0.472000,0.472100,0.469500,0.468000,0.468000,1.000000,1.000000,1.000000,0.470200,1.000000,0.470000,1.000000,1.000000,1.000000,1.000000,1.000000,1.000000,1.000000,0.465600,0.468800,0.470200,0.471000,0.471000,0.470200,0.470000,0.470000,0.471200,0.473000,0.473000,0.470600,1.000000,1.000000,1.000000,0.468300,0.466900,0.467000,0.466900,0.468900,0.470700,0.470600,0.468900,0.468900,0.468800,0.468700,0.468400,0.467800,0.469700,0.470200,1.000000,1.000000,0.469800,0.469700,0.469700,0.468600,0.468500,0.468400,0.468100,0.467900,0.466500,0.466600,0.467400,0.467800,0.468600,0.468600,0.468600,0.468600,0.468700,0.468600,0.468500,0.467800,0.467600,0.467100,0.466900,0.467800,0.469000,0.469000,0.468100,0.467900,0.467800,0.467800,0.468000,0.468300,0.468300,0.468300,0.468200,1.000000,0.430600,0.430600,0.430600,0.430600,0.429200,0.429200,0.429200,0.429800,0.429900,0.429800,0.429700,0.429500,0.429400,0.428000,0.427600,0.427500,0.429000,0.429000,0.429100,0.429200,0.429200,0.429400,0.428400,0.428300,0.428300,0.428800,0.428000,0.428000,0.428100,0.428000,0.426600,0.426600,0.426700,0.428000,0.427900,0.427800,0.427800,0.427700,0.427600,0.427600,0.427600,1.000000,1.000000,1.000000,1.000000,0.430100,0.430100,0.430200,0.430200,0.430100,0.430100,0.430000,1.000000,0.429700,0.429700,0.431100,0.430000,0.429400,0.429300,0.429300,0.429300,0.429400,0.429600,0.429600,0.429600,0.429500,0.429300,0.428300,0.428300,0.429100,0.430300,0.431700,0.431900,0.432400,0.432000,0.431700,1.000000,1.000000,0.430100,0.429800,0.429600,0.429600,0.429700,0.429800,0.431500,0.431500,0.429800,0.428500,0.427200,0.427300,0.429500,0.429800,0.428700,0.428600,0.428600,1.000000,1.000000,1.000000,0.463600,0.463600,0.463600,0.463300,0.462100,0.462000,0.463200,0.463200,0.463200,0.463200,0.463100,1.000000,1.000000,1.000000,1.000000,1.000000,1.000000,1.000000,1.000000,0.467400,1.000000,1.000000,1.000000,1.000000,1.000000,1.000000,1.000000,0.414800,1.000000,1.000000,1.000000,1.000000,1.000000,1.000000,1.000000,1.000000,0.463000,0.463000,0.462900,1.000000,1.000000,1.000000,0.461500,1.000000,0.462600,0.462600,0.462600,1.000000,1.000000,1.000000,1.000000,1.000000,1.000000,1.000000,0.461800,1.000000,1.000000,1.000000,1.000000,1.000000,1.000000,1.000000
1.000000,1.000000,1.000000,1.000000,0.471100,0.469600,0.469500,0.471000,0.473800,1.000000,0.472000,0.472100,0.472100,0.472200,0.470100,0.470200,0.470200,0.470200,0.470200,0.470000,0.469900,1.000000,1.000000,1.000000,1.000000,1.000000,1.000000,1.000000,0.467300,0.468800,0.468800,0.470300,0.470200,0.470200,0.470000,0.470000,0.470700,0.472900,0.472900,0.470600,0.468100,0.467700,0.466400,1.000000,0.465100,0.465100,0.465300,0.466900,0.468900,0.468900,0.468900,0.468900,0.468900,1.000000,1.000000,0.469600,0.469800,0.470300,1.000000,1.000000,0.469800,0.469800,0.469700,0.468500,0.468400,0.468300,0.468000,0.467900,0.467800,0.467800,0.468000,0.468300,0.468600,0.468600,0.468700,0.468700,0.468700,0.468600,0.468600,0.467900,0.467800,0.467700,0.467700,0.469000,0.469000,0.468400,0.468000,0.467900,0.467800,0.467800,0.468300,0.468300,0.468300,0.466900,0.466600,0.466600,1.000000,0.430600,0.430600,0.430500,0.429300,0.429300,0.429400,0.429600,0.429900,0.429900,0.429800,0.429600,0.429500,0.429300,0.428900,0.429000,0.429000,0.429000,0.429100,0.427000,0.424800,0.424600,0.424700,0.426300,0.427000,0.427900,0.428000,0.428000,0.428000,0.428000,0.428000,0.428000,0.428100,0.428100,0.428000,0.427900,0.427800,0.427600,0.427600,0.427600,0.427600,1.000000,1.000000,1.000000,1.000000,0.433500,0.433400,0.431200,0.430300,0.430100,0.430100,0.430000,1.000000,0.431300,0.431200,0.431200,0.429400,0.429300,0.429300,0.429200,0.429300,0.429400,0.429700,0.429700,0.429200,0.428500,0.428300,0.428300,0.429300,0.430100,0.431400,0.431800,0.432500,1.000000,0.431500,0.431300,0.431300,0.431200,0.430100,0.429800,0.429700,0.429700,0.429700,0.431300,0.431400,0.431400,0.429600,0.428500,0.428500,0.429200,0.429800,0.429800,0.429800,0.428600,0.427200,1.000000,1.000000,1.000000,1.000000,0.464600,0.464700,0.463600,0.463500,0.463600,0.465000,0.464900,1.000000,1.000000,1.000000,1.000000,1.000000,1.000000,1.000000,1.000000,1.000000,1.000000,1.000000,1.000000,1.000000,1.000000,1.000000,1.000000,1.000000,1.000000,1.000000,1.000000,1.000000,1.000000,1.000000,1.000000,1.000000,1.000000,1.000000,1.000000,1.000000,1.000000,1.000000,1.000000,1.000000,1.000000,1.000000,1.000000,1.000000,1.000000,1.000000,1.000000,1.000000,1.000000,1.000000,1.000000,1.000000,1.000000,1.000000,1.000000,1.000000,1.000000,1.000000,1.000000,1.000000,1.000000
0.476000,0.476000,0.471300,1.000000,0.471100,0.471000,0.471000,0.471000,0.473400,0.471900,1.000000,0.472000,0.472100,0.472200,0.470300,0.470200,0.470200,0.471200,0.471200,0.469800,1.000000,1.000000,1.000000,1.000000,1.000000,1.000000,1.000000,1.000000,0.468800,1.000000,0.468800,0.468800,0.468600,0.468600,0.468600,0.469800,0.470300,0.472900,0.472900,0.469000,0.467900,0.467600,0.466000,0.465200,0.465100,0.465200,0.465300,0.465700,0.467800,1.000000,1.000000,1.000000,1.000000,1.000000,1.000000,0.469600,0.469700,0.469800,1.000000,0.469800,0.468700,0.468900,0.468500,0.468400,0.468300,0.468000,0.467800,0.467800,0.467800,0.468000,0.468200,0.468400,0.468600,0.468600,0.468700,0.468700,0.468800,0.468700,0.468600,0.468000,0.467800,0.467800,0.467700,0.467700,0.468700,0.468000,0.467900,0.467900,0.467800,0.467800,0.468200,0.468400,0.467700,0.466500,0.466600,0.466600,1.000000,0.430100,0.429800,0.429500,0.429400,0.429400,0.429400,0.429500,0.429800,0.429900,0.429800,0.429800,0.429700,0.429500,0.429400,0.429100,0.429100,0.429100,0.429100,0.425600,0.424600,0.424600,0.424600,0.426400,0.427000,0.427900,0.428000,0.428000,0.428000,0.428000,0.428000,0.428000,0.428100,0.428000,0.427900,0.427800,0.427700,0.427600,0.427500,0.427500,0.427500,1.000000,1.000000,1.000000,1.000000,1.000000,0.433400,0.433200,0.432700,0.430700,0.430800,0.431100,0.431800,0.431400,0.430500,0.429500,0.429300,0.429200,0.429200,0.429200,0.430600,0.430400,0.430100,0.429300,0.429100,0.428900,0.428500,0.429300,0.430000,0.431400,0.431700,0.433600,0.433600,0.431200,0.431200,0.431200,0.431200,0.431200,0.431100,0.431000,0.431100,0.431100,0.431200,0.431200,0.431400,0.431400,0.429700,0.428400,0.428500,0.428600,0.428600,0.429000,0.427800,0.427500,0.425400,1.000000,1.000000,1.000000,0.466100,0.465900,0.464900,0.464900,0.465000,0.465000,0.465000,0.464900,1.000000,1.000000,1.000000,1.000000,1.000000,1.000000,1.000000,1.000000,1.000000,1.000000,1.000000,1.000000,1.000000,0.423700,1.000000,0.428000,1.000000,0.427200,0.427200,1.000000,1.000000,1.000000,1.000000,1.000000,1.000000,1.000000,1.000000,1.000000,1.000000,1.000000,1.000000,1.000000,1.000000,1.000000,1.000000,1.000000,1.000000,1.000000,1.000000,1.000000,1.000000,1.000000,1.000000,1.000000,1.000000,1.000000,1.000000,1.000000,1.000000,1.000000,1.000000,1.000000,1.000000,1.000000
0.476000,0.476000,0.471300,0.473800,0.471300,0.472200,0.472400,0.473200,0.473500,0.473500,1.000000,0.471900,0.472000,0.472200,0.470400,1.000000,0.471100,0.471200,0.471200,0.469800,0.469700,1.000000,0.469100,1.000000,1.000000,1.000000,1.000000,1.000000,0.468800,0.468800,0.468800,0.468800,1.000000,0.468600,1.000000,0.468600,0.469400,1.000000,1.000000,0.468600,0.467700,0.467600,0.466000,0.465800,0.465100,0.465200,0.465500,0.465700,0.467800,1.000000,1.000000,1.000000,0.469500,1.000000,1.000000,0.469600,0.469700,0.469700,1.000000,0.469600,0.468700,0.468600,0.468400,0.468300,0.468100,0.467800,0.467800,0.467800,0.467900,1.000000,0.468300,0.468400,0.468600,0.468600,0.468700,0.468800,0.468800,0.468600,0.468600,0.468300,0.467900,0.467800,0.466800,0.466900,0.467800,0.467900,0.467900,0.467900,0.466600,0.466500,0.466400,0.466400,0.466400,0.466400,0.466500,0.466600,0.430200,0.428900,0.428800,0.429500,0.429400,0.429400,0.429400,0.429500,0.429800,0.429900,0.429800,0.429800,0.429700,0.429600,0.429600,0.429300,0.429200,0.429200,0.429000,0.425600,0.424700,0.424700,0.424800,0.427000,0.427100,0.428000,0.428100,0.428100,0.428100,0.428000,0.428000,0.428100,0.428000,0.428000,0.427800,0.427700,0.427600,0.427500,0.427500,0.427400,0.427400,1.000000,1.000000,1.000000,1.000000,1.000000,0.433400,0.433200,0.433100,0.433000,0.432700,0.432200,0.432000,0.430600,0.429600,0.429500,0.429300,0.429200,0.429100,0.429200,0.430600,0.430600,0.430400,0.429200,0.429100,0.429100,0.429200,0.429300,0.430000,0.431400,0.431600,0.433700,0.429300,0.429300,0.429400,0.430300,0.431200,0.431100,0.431100,1.000000,1.000000,1.000000,0.431100,0.431200,0.431300,0.429800,0.428400,0.427200,0.427000,0.427200,0.427500,0.427600,0.427600,0.426900,0.424800,1.000000,1.000000,1.000000,1.000000,0.467800,0.465800,0.465000,0.465000,0.465000,0.465000,1.000000,1.000000,1.000000,1.000000,1.000000,1.000000,1.000000,1.000000,0.424000,1.000000,0.424100,1.000000,1.000000,1.000000,0.423700,0.425100,0.427200,0.427200,0.427200,0.427200,1.000000,1.000000,1.000000,1.000000,1.000000,1.000000,1.000000,1.000000,1.000000,1.000000,1.000000,1.000000,1.000000,1.000000,1.000000,1.000000,1.000000,1.000000,1.000000,1.000000,1.000000,1.000000,1.000000,1.000000,1.000000,1.000000,1.000000,1.000000,1.000000,1.000000,1.000000,1.000000,1.000000,1.000000,1.000000
0.476300,0.476200,0.475000,0.475000,0.473500,0.473200,0.473100,0.473100,0.473600,0.473600,0.471600,1.000000,1.000000,1.000000,1.000000,0.471000,0.471100,0.471200,0.471200,0.471200,0.469500,0.469300,0.470400,0.470400,1.000000,1.000000,0.470300,0.468800,0.468800,0.468800,0.469300,0.468800,0.468600,0.468600,0.468600,0.469200,0.469300,0.470500,0.470600,0.469300,0.468500,0.468500,0.469800,0.469900,0.467600,0.467700,0.468900,1.000000,1.000000,1.000000,0.470300,0.469700,1.000000,1.000000,1.000000,0.469500,0.469600,0.469700,0.469700,1.000000,0.468600,0.468600,0.468400,0.468200,0.467900,0.467800,0.467700,0.467800,0.467900,0.468300,0.468400,0.468400,0.468600,0.469700,0.469600,0.469600,0.468500,0.468500,0.468400,0.468300,0.468100,0.467900,0.466800,0.466800,0.466800,0.467900,0.467900,0.466700,0.466600,0.466400,0.466400,0.466400,0.466400,0.466400,0.466500,0.466500,1.000000,0.427800,0.427700,0.427800,0.429000,0.429300,0.429400,0.429400,0.429500,0.429700,0.429800,0.429800,0.429800,0.429700,0.429600,0.429500,0.429400,0.429500,0.429300,0.427300,0.425800,0.427200,0.427200,0.427100,0.427200,0.428500,0.428400,0.428300,0.428300,0.428200,0.428100,0.428100,0.428000,0.427800,0.427600,0.427600,0.427600,0.427500,0.427400,0.427400,0.427300,1.000000,1.000000,1.000000,1.000000,1.000000,0.431700,0.431600,0.433000,0.433000,0.432400,0.430700,0.430700,0.429600,0.429600,0.429500,0.428700,0.428700,0.428700,0.429600,0.430700,0.430700,0.430600,0.429200,0.429100,0.429100,0.429200,0.429200,0.429300,0.428300,0.428000,1.000000,0.427900,0.427900,0.427800,0.427800,0.429600,0.429600,0.429600,0.429700,1.000000,0.431000,0.429800,0.428400,0.428400,0.428400,0.426500,0.426000,0.425800,0.425800,0.425800,0.426400,0.426700,0.426800,0.424500,0.423800,0.423500,1.000000,1.000000,1.000000,1.000000,1.000000,1.000000,1.000000,1.000000,1.000000,1.000000,0.424400,0.424000,0.424000,0.424000,0.424000,0.424000,0.424000,0.424100,0.424100,1.000000,1.000000,0.422200,0.422200,0.423700,0.425200,0.426900,0.427100,0.427100,1.000000,1.000000,1.000000,1.000000,1.000000,1.000000,1.000000,1.000000,1.000000,1.000000,1.000000,1.000000,1.000000,1.000000,1.000000,1.000000,1.000000,1.000000,1.000000,1.000000,1.000000,1.000000,1.000000,1.000000,1.000000,1.000000,1.000000,1.000000,1.000000,1.000000,1.000000,1.000000,1.000000,1.000000,1.000000
0.476600,1.000000,1.000000,0.476100,0.473800,0.473100,0.473000,1.000000,1.000000,0.473700,1.000000,1.000000,1.000000,0.470600,0.470800,1.000000,0.471100,0.471200,0.473100,0.472100,0.471900,0.471800,0.471700,0.471400,0.471300,0.471200,1.000000,1.000000,1.000000,1.000000,0.471700,0.471700,0.471700,0.471700,0.470600,0.470500,0.470500,0.471300,0.470600,0.469400,0.469500,0.471100,0.471100,0.471000,0.470000,1.000000,0.470000,1.000000,1.000000,0.471000,0.470300,0.469600,0.469500,1.000000,0.469500,0.469500,1.000000,1.000000,0.471200,1.000000,0.468900,0.468500,0.468300,0.468000,0.467900,0.467800,0.467700,0.467800,0.467800,0.468200,0.468300,0.468500,0.469600,0.469600,0.469600,0.469600,0.468300,0.468300,0.469400,0.470200,0.469800,0.468400,0.466800,0.466800,0.467800,0.468100,0.468200,0.468200,0.468300,0.467100,0.467400,0.467400,0.467500,0.467700,0.468900,0.467900,1.000000,0.427800,0.426800,0.426900,0.427000,0.429300,0.429300,0.429300,0.429500,0.429600,0.429800,0.429800,0.429800,0.429800,0.429800,0.429600,0.429600,0.429600,0.429600,0.428600,0.427300,0.427200,0.427200,0.427200,0.428600,0.428600,0.428400,0.428400,0.428300,0.428200,0.427300,0.426800,0.427000,0.427100,0.427200,0.427400,0.427400,0.427400,0.427400,0.427300,0.427200,1.000000,1.000000,1.000000,1.000000,1.000000,0.430800,0.430800,0.430900,0.430900,0.430700,0.430700,0.430600,0.429700,0.429700,0.429600,0.428600,0.428600,0.428600,0.429800,0.430800,0.430700,0.430700,0.429800,0.429400,0.429300,0.429200,0.427600,0.427500,0.427500,0.427700,0.427900,0.427900,0.427900,0.427700,0.427700,0.427700,0.429500,0.429600,0.429700,0.428300,0.428300,0.428400,0.425700,0.425600,0.425600,0.425600,0.425800,0.425800,0.425800,0.425700,0.425600,0.425600,0.424500,0.424400,0.424000,0.423500,0.423500,1.000000,0.424000,0.424100,1.000000,0.424100,0.424100,0.424100,0.424100,0.424100,0.424100,0.424000,0.424000,0.424000,0.424000,0.424000,0.424000,0.424000,0.424000,0.423100,0.422100,0.422100,0.422200,0.422300,0.423700,0.425400,0.425500,0.425500,1.000000,1.000000,1.000000,1.000000,1.000000,1.000000,1.000000,1.000000,1.000000,1.000000,1.000000,1.000000,1.000000,1.000000,1.000000,1.000000,1.000000,1.000000,0.459200,0.459000,0.459000,1.000000,1.000000,1.000000,1.000000,1.000000,1.000000,1.000000,1.000000,1.000000,1.000000,1.000000,1.000000,1.000000,1.000000
0.476600,1.000000,1.000000,1.000000,0.473100,0.472900,1.000000,1.000000,1.000000,0.470600,0.471300,1.000000,1.000000,1.000000,0.470800,1.000000,0.471300,0.471500,0.473100,0.472000,0.471900,0.471800,0.471700,0.471400,0.471300,0.471200,1.000000,1.000000,1.000000,1.000000,0.471700,0.472600,0.472400,0.472800,0.472800,1.000000,0.472500,0.472400,0.472400,0.472400,0.472400,0.472200,1.000000,0.471000,1.000000,1.000000,1.000000,1.000000,1.000000,0.467600,0.467600,0.469300,1.000000,1.000000,1.000000,1.000000,1.000000,1.000000,1.000000,0.471300,0.470900,0.469500,0.468300,0.468000,0.467900,0.467800,0.467800,0.467800,0.467900,0.468200,0.468300,0.469400,0.469500,0.469500,0.469600,0.469600,0.468100,0.468100,0.470200,0.470100,0.470100,0.470100,0.468600,1.000000,0.468300,0.468300,0.468300,0.468300,0.468300,0.468400,0.468500,0.468600,0.468800,0.469000,0.469600,0.469700,1.000000,1.000000,0.426800,0.426900,0.426900,0.427200,0.428300,0.428300,0.428200,0.428200,0.429600,0.429800,0.429900,0.429800,0.429800,0.429600,0.429600,0.429700,0.429700,0.429800,0.427400,0.427400,0.427400,0.427400,0.428800,0.429700,0.429700,0.428400,0.428400,0.427200,0.426800,0.426800,0.426900,0.427000,0.427100,0.427300,0.427400,0.427400,0.427300,0.427300,0.427200,0.427200,0.427900,1.000000,0.429300,0.429300,0.429200,0.428300,0.428000,0.426900,0.426900,0.427800,0.429900,0.429800,0.429700,0.429600,0.428100,0.427800,0.428400,0.428400,0.429500,0.429800,0.429900,0.429700,0.429500,0.429300,0.427800,0.427100,0.426600,0.426400,0.426400,0.426400,0.426400,0.426400,0.425400,0.425300,0.425200,0.425200,0.427100,0.425400,0.425500,0.425600,0.425700,0.425500,0.425500,0.425600,0.425600,0.425700,0.425700,0.425700,0.425700,0.425700,0.425600,0.424600,0.424400,0.424500,0.424600,0.424700,0.424000,0.424000,0.424100,0.424100,0.424100,0.424100,0.424100,0.424100,0.424100,0.422800,0.422800,0.424100,0.424100,0.424200,0.424200,0.424200,0.424100,0.424000,0.423400,0.422200,0.422200,0.422200,0.422300,0.423700,0.425400,0.425400,0.425400,1.000000,1.000000,1.000000,1.000000,1.000000,1.000000,1.000000,1.000000,1.000000,1.000000,1.000000,1.000000,1.000000,1.000000,1.000000,1.000000,0.460000,0.459200,0.459200,0.459000,0.459000,0.458900,1.000000,1.000000,1.000000,1.000000,1.000000,1.000000,1.000000,1.000000,1.000000,0.461000,1.000000,1.000000,1.000000
1.000000,1.000000,1.000000,1.000000,1.000000,1.000000,1.000000,0.472600,1.000000,0.469600,0.470600,1.000000,1.000000,1.000000,1.000000,1.000000,0.471700,0.471800,0.471900,1.000000,0.472000,0.471900,0.471800,0.471200,0.470300,0.471200,1.000000,1.000000,1.000000,1.000000,0.472800,0.472800,0.472800,0.473000,1.000000,1.000000,1.000000,0.472400,0.472400,0.472400,0.472400,0.471300,0.471000,1.000000,1.000000,0.471100,0.471100,0.468200,0.467100,0.467100,0.467100,0.468800,0.469200,1.000000,1.000000,1.000000,1.000000,1.000000,0.471400,0.471400,0.470900,0.469300,0.468300,0.468100,0.468000,0.467900,0.467800,0.467900,0.468200,0.469200,0.469200,0.469200,0.469400,0.469500,0.469500,0.469500,0.468100,0.468100,0.470100,0.470000,0.470000,0.470000,0.470000,1.000000,0.469200,0.468300,0.468300,0.468300,0.468300,0.468400,0.468600,0.468700,0.468900,0.469300,0.469500,0.469600,1.000000,1.000000,0.428300,0.427700,0.427200,0.428400,0.428400,0.428300,0.428200,0.428200,0.429500,0.429800,0.429900,0.429000,0.429000,0.429400,0.429600,0.429700,0.429800,0.429900,0.428500,0.427500,0.427500,0.427600,0.428900,0.429800,0.429800,0.428200,0.428000,0.427100,0.426900,0.426900,0.426900,0.426900,0.427000,0.427100,0.427200,0.427400,0.427400,0.427300,0.427300,0.428100,0.428000,0.428000,0.428000,0.429200,0.428400,0.428200,0.426900,0.426900,0.426900,0.427100,0.427300,0.429800,0.429700,0.428700,0.426200,0.426200,0.427500,0.428200,0.428300,0.428200,0.428200,0.428100,0.428000,0.427900,0.427600,0.426800,0.426600,0.426400,0.426300,0.426300,0.426300,0.425500,0.425400,0.425300,0.425200,0.424900,0.424600,0.424400,0.424300,0.424300,0.424400,0.424400,0.425100,0.425300,0.425500,0.425600,0.425600,0.425700,0.425000,0.425000,0.424800,0.424500,0.424400,0.424400,0.424600,0.424700,0.424800,0.424100,0.424200,0.424200,0.424200,0.424100,0.424100,0.424000,0.422900,0.422700,0.422400,0.422400,0.424300,0.424300,0.424300,0.424300,0.424400,0.423900,0.422300,0.422200,0.422200,0.422300,0.423600,0.425400,0.425400,0.425400,0.425400,1.000000,1.000000,1.000000,1.000000,1.000000,1.000000,1.000000,1.000000,1.000000,1.000000,1.000000,0.462300,0.460500,0.460500,0.460300,0.460200,0.460100,0.459200,0.459200,0.459000,0.459000,0.460700,0.460700,0.463200,0.464000,1.000000,1.000000,1.000000,1.000000,1.000000,0.461100,0.460900,0.460800,0.456000,0.456200
1.000000,1.000000,1.000000,1.000000,0.473100,1.000000,1.000000,1.000000,0.472700,0.468400,0.468400,1.000000,1.000000,1.000000,1.000000,1.000000,0.471800,0.471800,0.471900,1.000000,0.471000,0.471900,0.470900,0.470200,1.000000,1.000000,1.000000,1.000000,1.000000,1.000000,0.472900,1.000000,1.000000,1.000000,1.000000,1.000000,1.000000,1.000000,1.000000,0.473500,0.473500,0.470900,1.000000,0.470600,0.471000,0.471200,0.470900,0.470700,0.467900,0.467100,0.467200,1.000000,1.000000,1.000000,1.000000,1.000000,1.000000,0.469100,0.469500,0.469400,0.469200,0.469100,0.468300,0.468200,0.468100,0.468000,0.469200,0.469400,0.469200,0.469200,0.469100,0.469000,0.469100,0.469200,0.469200,0.469200,0.468000,0.468000,0.469900,0.469900,0.469900,0.469900,0.469800,0.469700,0.469500,0.468300,0.468300,0.468200,0.468300,0.468300,0.468600,0.468700,0.468900,0.469200,1.000000,1.000000,1.000000,1.000000,0.428500,0.428600,0.428600,0.428500,0.429800,0.428300,0.428200,0.428200,0.429800,0.429800,0.429000,0.428400,0.428400,0.428600,0.429500,0.430000,0.430000,0.430100,0.428700,1.000000,1.000000,0.428900,0.429100,0.429600,0.429800,0.428000,0.428000,0.427200,0.427000,0.426900,0.426900,0.426900,0.426900,0.427000,0.427200,0.427400,0.427400,0.428800,0.428600,0.428200,0.427600,0.427100,0.427000,0.427000,0.426800,0.426800,0.426900,0.426900,0.427000,0.427100,0.427200,0.427300,0.427400,0.426200,0.426200,0.426200,0.426200,0.426300,0.426600,0.426700,0.426900,0.427000,0.427000,0.427000,0.426900,0.426700,0.426400,0.425100,0.425100,0.426400,0.426400,0.425500,0.425400,0.425300,0.425200,0.424900,0.424600,0.424400,0.424300,0.424300,0.424300,0.424300,0.425000,0.425200,0.425400,0.425500,0.425600,0.425600,0.425000,0.424900,0.424800,0.424400,0.424400,0.424300,0.424700,0.424900,0.425000,0.424300,0.424200,0.424200,0.424200,0.424200,0.424100,1.000000,1.000000,0.422800,0.422400,0.422300,1.000000,0.424400,1.000000,1.000000,1.000000,0.424600,1.000000,0.422300,0.422300,0.423500,0.423700,0.425400,0.425300,0.425300,0.425300,1.000000,1.000000,1.000000,1.000000,1.000000,1.000000,1.000000,1.000000,1.000000,0.462400,0.462400,0.462200,0.461000,0.460600,0.460500,0.460300,0.460400,0.460600,0.460700,0.460700,0.460700,0.460800,0.461700,0.462000,0.462900,0.461900,1.000000,1.000000,0.461900,0.462000,0.462000,0.460900,0.460800,0.460700,1.000000
1.000000,1.000000,1.000000,0.472300,1.000000,1.000000,1.000000,1.000000,0.472800,0.468400,0.468400,1.000000,1.000000,1.000000,1.000000,0.471800,0.471800,0.471800,0.471900,0.473100,0.471000,0.470900,0.470900,0.467600,1.000000,1.000000,1.000000,1.000000,1.000000,1.000000,1.000000,0.473800,0.473700,1.000000,1.000000,1.000000,1.000000,1.000000,1.000000,0.473000,0.473300,0.470900,1.000000,1.000000,1.000000,1.000000,0.470900,1.000000,0.468400,1.000000,0.467400,1.000000,0.472800,1.000000,0.471500,0.470500,0.467500,0.467500,0.469200,0.469300,0.469200,0.469100,0.468300,0.468200,0.468200,0.469000,0.469400,0.469400,0.469200,0.469100,0.469000,0.468800,0.468900,0.469000,0.469100,0.468800,0.468100,0.468100,0.469600,0.469800,0.469900,0.469800,0.469800,0.469700,0.469000,0.468300,0.468300,0.468200,0.468300,0.468300,0.468600,0.468800,0.468900,0.469200,0.469400,0.469400,1.000000,1.000000,0.430000,0.428700,0.428600,0.429800,0.429800,0.429800,0.429800,0.429700,0.429800,0.428900,0.428500,0.427000,0.427600,0.428200,0.429300,0.430100,0.430100,0.430100,0.428700,0.428800,0.428800,0.429000,0.429200,0.429500,0.429700,0.428000,0.428000,0.427900,0.427300,0.426900,0.426900,0.426800,0.426700,0.426700,0.426800,0.427400,0.428400,0.428900,0.428800,0.428400,0.427200,0.426200,0.426400,0.426700,0.426800,0.426800,0.426900,0.426900,0.427000,0.427100,0.427200,0.427200,0.427400,0.426200,0.426200,0.426200,0.426200,0.426300,0.426600,0.426700,0.426900,0.427000,0.427000,0.427000,0.426900,0.426800,0.425100,0.425000,0.425000,0.426400,0.426400,0.425500,0.425500,0.425400,0.425400,0.425000,0.424600,0.424400,0.424300,0.424300,0.424300,0.422800,0.424000,0.425200,0.425300,0.425500,0.425500,0.425100,0.425000,0.424900,0.424900,0.424500,0.424300,0.424100,0.424400,0.425000,0.425000,0.425000,0.424300,0.424300,1.000000,0.424200,1.000000,1.000000,1.000000,1.000000,1.000000,0.422300,1.000000,1.000000,1.000000,1.000000,1.000000,1.000000,1.000000,1.000000,1.000000,1.000000,1.000000,1.000000,0.425200,0.425300,0.425300,1.000000,1.000000,1.000000,1.000000,1.000000,1.000000,1.000000,1.000000,1.000000,0.462500,0.462400,0.462000,0.461100,0.460800,0.460700,0.460500,0.461900,0.460700,0.460700,0.460700,0.460800,0.460800,0.461700,0.461800,0.461800,0.461900,0.461900,0.461900,0.461900,0.462000,0.462000,0.460900,1.000000,1.000000,1.000000
1.000000,1.000000,1.000000,0.472400,1.000000,1.000000,1.000000,0.473200,0.473000,0.470700,1.000000,1.000000,1.000000,0.476600,0.473600,1.000000,0.471800,0.473200,0.473200,0.471000,0.470900,0.470900,0.470900,0.467500,1.000000,1.000000,1.000000,0.473000,0.473400,0.474500,0.474200,0.474000,0.473700,0.473700,1.000000,1.000000,1.000000,1.000000,0.470900,0.471800,0.471900,0.472000,1.000000,0.470000,1.000000,1.000000,0.470600,0.470700,0.470700,1.000000,1.000000,1.000000,0.471100,1.000000,0.471400,0.471500,0.470500,0.467500,0.467500,0.469200,0.469200,0.469200,0.468400,0.468400,0.469500,0.469600,0.469600,0.469600,0.469500,0.469000,0.468800,0.468800,0.468800,0.468900,0.469000,0.468900,0.468400,0.469200,0.469600,1.000000,0.471200,0.471200,0.469700,0.469700,0.469600,0.468600,0.468400,0.468300,0.468300,0.468400,0.468600,0.468800,0.468900,0.469200,0.469400,1.000000,1.000000,1.000000,0.429800,0.428900,0.428800,0.429800,0.429800,0.429800,0.429800,0.429800,0.428600,0.428600,0.426900,0.426800,0.426800,0.427000,0.428600,0.430100,0.430000,0.430000,0.428600,0.428800,0.428900,0.429000,0.429200,0.429300,0.427900,0.427900,0.428000,0.428000,0.428000,0.426900,0.426800,0.426800,0.426600,0.426600,0.426600,0.428000,0.428900,0.428900,0.428800,0.427200,0.425900,0.425900,0.426200,0.426600,0.426700,0.426800,0.426900,0.426900,0.427000,0.427100,0.427100,0.427000,0.426300,0.426300,0.426200,0.426200,0.426200,0.426300,0.426600,0.426700,0.426900,0.426900,0.426900,0.426900,0.425300,0.425200,0.425100,0.425100,0.425100,0.426700,0.426700,0.425500,0.425500,0.425500,0.425800,0.426000,0.425200,0.424400,0.424300,0.424200,0.423000,0.422700,0.422700,0.424000,0.425200,0.425400,0.425200,0.425100,0.425000,0.425000,0.425000,0.424200,0.423900,0.422900,0.422900,0.423600,0.425100,0.425100,0.425100,1.000000,1.000000,1.000000,1.000000,1.000000,1.000000,1.000000,1.000000,1.000000,1.000000,1.000000,1.000000,1.000000,1.000000,1.000000,1.000000,1.000000,1.000000,1.000000,1.000000,1.000000,0.425100,0.425100,0.425300,1.000000,1.000000,1.000000,1.000000,1.000000,1.000000,1.000000,1.000000,0.462600,0.462500,0.462500,0.461800,0.461700,0.461100,0.461000,0.461400,0.462600,0.462200,0.460700,0.460800,0.460800,0.460800,0.461700,0.461800,0.461800,0.461800,0.461900,0.461900,0.461900,0.461900,0.461800,0.461200,0.461300,1.000000,1.000000
0.469600,0.470900,0.472400,0.472400,0.473500,1.000000,0.473500,0.473300,0.473100,0.470700,0.473900,0.473900,0.473900,0.475000,0.473500,0.473500,0.473300,0.473300,0.473200,0.471900,0.470900,0.470900,0.470900,1.000000,1.000000,1.000000,1.000000,0.473700,0.474600,0.474600,0.474500,0.474100,0.473100,0.473100,0.471900,1.000000,1.000000,0.470900,0.470900,0.470900,0.471900,0.470200,0.470100,0.470100,1.000000,0.470000,0.470000,0.470600,0.470600,0.470700,0.470700,0.470800,1.000000,0.471200,0.473200,0.471500,0.471600,0.467500,1.000000,0.467400,0.467500,0.469200,0.469200,0.469400,0.469600,0.469600,0.469700,0.469700,0.469700,0.469600,0.468800,0.468800,0.468800,0.468900,0.468900,0.468900,0.468900,0.469200,0.469800,0.470000,0.471200,0.471300,0.471300,0.469700,0.469600,0.469200,0.468600,0.468500,0.468500,0.468500,0.468800,0.469000,0.469100,0.469300,0.469700,1.000000,1.000000,1.000000,0.429000,0.429000,0.429000,0.429700,0.429700,0.429800,0.429000,0.428700,0.428600,0.428600,0.426800,0.426800,0.426700,0.426500,0.428400,0.428800,0.430000,0.430000,0.428100,0.427900,0.428000,0.429100,0.429200,0.429200,0.427800,0.427900,0.428100,0.428100,0.428200,0.427700,0.426900,0.426800,0.426600,0.426600,0.426600,0.427600,0.428000,0.428100,0.427100,0.427000,0.425800,0.425800,0.425900,0.426500,0.426700,0.426800,0.426900,0.427000,0.427000,0.427100,0.427000,0.426600,0.426400,0.426300,0.426200,0.426200,0.427400,0.427200,0.426800,0.426900,0.426900,0.426900,0.426900,0.425500,0.425300,0.425200,0.425200,0.425100,0.425100,0.427000,0.426900,0.425600,0.425600,0.425600,1.000000,1.000000,1.000000,1.000000,1.000000,1.000000,1.000000,1.000000,1.000000,1.000000,1.000000,1.000000,1.000000,1.000000,0.425200,0.425200,0.425200,0.424000,0.423200,0.422900,0.422900,0.422900,0.425100,0.425100,0.425100,1.000000,1.000000,1.000000,1.000000,1.000000,1.000000,1.000000,1.000000,1.000000,1.000000,1.000000,1.000000,1.000000,1.000000,1.000000,1.000000,1.000000,1.000000,1.000000,1.000000,1.000000,0.424900,0.424900,0.425500,0.425500,1.000000,1.000000,1.000000,1.000000,1.000000,1.000000,1.000000,0.462700,0.462700,0.462700,0.462600,0.461700,0.461600,0.461600,0.462900,0.463900,0.463800,0.463800,0.461800,0.461700,0.461800,0.461800,0.461800,0.461800,0.461800,0.461900,0.461900,0.461900,0.461800,0.461700,0.461600,0.461400,0.463800,0.463800
0.470600,0.471600,0.472500,0.472500,0.473400,0.473500,0.473500,1.000000,0.473200,0.474000,1.000000,0.473900,0.473800,1.000000,0.473500,0.473400,0.473300,0.473300,0.473300,0.471900,0.471900,1.000000,1.000000,1.000000,1.000000,1.000000,1.000000,1.000000,0.471600,0.471400,0.471400,0.472900,0.473000,0.472000,0.471200,0.471200,1.000000,0.470900,0.470900,0.470900,0.471900,0.470200,0.470200,0.470100,0.470000,0.470100,0.470100,0.470300,0.470500,0.470600,0.470600,1.000000,1.000000,1.000000,0.473200,0.473200,0.473200,0.469200,0.467500,0.467500,0.467500,0.469200,0.469400,0.470200,0.470600,0.470000,0.470000,0.470400,0.470400,0.470400,0.470400,0.469000,0.468900,0.469000,0.469000,0.469000,0.469000,0.470500,0.470700,0.471000,0.471300,0.471300,0.471400,0.469700,0.469500,0.469000,0.468800,0.468600,0.468600,0.468600,0.468900,0.469100,0.469200,0.470000,0.469900,0.469800,1.000000,1.000000,0.428900,0.428900,0.429000,0.429700,0.429700,0.429700,0.428800,0.428700,0.428600,0.428500,0.428400,0.426500,0.426300,0.424800,0.425200,0.427500,0.428500,0.428300,0.427800,0.427800,0.427700,0.427600,0.427500,0.427600,0.427800,0.427900,0.428100,0.428200,0.428200,0.427800,0.427200,0.427000,0.426800,0.426700,0.426600,0.427000,0.428000,0.428000,0.427200,0.427000,0.427000,0.425800,0.426300,0.426600,0.426700,1.000000,0.426900,0.427000,0.427000,0.427200,0.427200,0.426600,0.426400,0.426300,0.426300,0.427400,0.427400,0.427300,0.427200,0.427000,0.427000,0.427000,0.425600,0.425600,0.425400,0.425300,0.425200,0.425200,0.425200,1.000000,1.000000,1.000000,0.425600,1.000000,1.000000,1.000000,1.000000,1.000000,1.000000,1.000000,1.000000,1.000000,0.464000,1.000000,1.000000,1.000000,1.000000,1.000000,1.000000,1.000000,0.425400,0.423900,0.423000,0.423000,0.422900,0.423900,0.425100,0.425100,1.000000,1.000000,1.000000,1.000000,1.000000,1.000000,1.000000,1.000000,1.000000,0.462800,0.465800,1.000000,1.000000,1.000000,1.000000,1.000000,1.000000,1.000000,1.000000,1.000000,1.000000,1.000000,0.424900,0.424900,0.425600,0.425600,1.000000,1.000000,1.000000,1.000000,1.000000,1.000000,1.000000,0.461700,0.461700,0.462700,0.462700,0.462600,0.461800,0.461800,0.463400,0.464000,0.463800,0.463800,1.000000,0.463800,0.463800,0.463200,0.463200,0.461800,0.463200,0.463400,0.463400,0.463500,0.463400,0.463300,0.461600,0.461600,0.464000,0.464000
0.470700,0.472500,1.000000,0.472600,0.472600,0.473400,0.473400,0.473400,1.000000,0.474000,0.473900,1.000000,0.473800,1.000000,0.473500,0.473300,0.473200,0.473200,0.471900,0.471900,1.000000,1.000000,1.000000,1.000000,1.000000,1.000000,0.471800,0.471700,0.471400,0.471400,0.471400,0.472900,0.472800,0.472100,0.471200,0.471200,0.471200,0.471800,1.000000,0.471800,0.471800,0.470300,0.470300,0.470200,0.470200,0.470100,0.470000,0.469800,0.469700,0.469700,0.470400,1.000000,1.000000,1.000000,0.472200,0.472200,0.472200,0.469400,0.467600,0.467600,0.467500,0.469200,0.469700,0.470800,0.470800,0.470800,0.470600,0.470400,0.470400,0.470400,0.470400,0.470400,0.470500,0.469000,0.469100,0.469200,0.469100,0.470500,0.470800,0.471100,0.471300,0.471400,0.471400,0.469700,0.469700,0.469600,0.468900,0.468700,0.468700,0.468900,0.469500,0.469500,0.470300,0.470300,0.470100,0.470000,1.000000,1.000000,0.428800,0.428800,0.429600,0.429700,0.429700,0.429700,0.429700,0.428700,0.428600,0.428500,0.428300,0.426400,0.424800,0.424400,0.424400,0.424400,0.427600,0.428200,0.427600,0.427600,0.427500,0.426800,0.427500,0.427500,0.427800,0.427900,0.428100,0.427800,0.427600,0.427400,0.427300,0.427200,0.427000,0.426800,0.426500,0.426500,0.427500,1.000000,1.000000,1.000000,1.000000,1.000000,1.000000,1.000000,1.000000,1.000000,1.000000,1.000000,1.000000,1.000000,0.427300,0.427300,1.000000,1.000000,1.000000,0.427400,0.427300,0.427300,0.427200,0.427200,0.427200,0.427200,0.426200,0.425700,0.425500,0.425400,0.425300,1.000000,1.000000,1.000000,1.000000,1.000000,0.462300,0.462400,1.000000,1.000000,1.000000,1.000000,1.000000,1.000000,1.000000,0.465700,0.464900,0.463800,0.463800,0.463700,0.463600,0.462300,1.000000,1.000000,0.425400,0.423200,0.423000,0.423000,0.423800,0.425000,0.425000,0.425000,1.000000,1.000000,1.000000,1.000000,1.000000,1.000000,1.000000,1.000000,1.000000,0.459400,0.465800,1.000000,1.000000,1.000000,1.000000,1.000000,1.000000,1.000000,0.462600,1.000000,1.000000,1.000000,0.425600,0.425600,0.425600,1.000000,1.000000,1.000000,1.000000,1.000000,1.000000,1.000000,1.000000,1.000000,0.461700,0.462800,0.463800,0.464900,0.464800,0.464700,0.464600,0.464000,0.463800,1.000000,1.000000,1.000000,0.463800,0.463100,0.463100,0.463100,0.463200,0.463400,0.463400,0.463500,0.463300,0.463200,0.463200,0.463200,0.464200,0.464200
0.472500,0.472600,0.472900,1.000000,0.472600,0.473300,1.000000,1.000000,1.000000,0.475000,0.473900,0.473900,1.000000,1.000000,1.000000,0.473200,0.473200,0.471900,0.471800,0.471900,0.472000,1.000000,1.000000,1.000000,1.000000,1.000000,1.000000,0.471500,0.471400,0.471400,0.471400,0.472800,0.472800,0.471200,0.471200,0.471200,0.471500,1.000000,1.000000,0.473700,0.471800,0.470300,0.470300,0.470300,0.472000,0.472000,0.470000,0.469700,0.469700,0.469700,1.000000,1.000000,1.000000,0.472100,0.472200,0.472100,0.472200,0.469400,0.467600,0.467600,0.467600,0.469700,0.469900,0.470300,0.470800,0.470800,0.470600,0.470400,0.470400,0.470400,0.470400,0.470400,0.470600,0.469600,0.469400,0.469300,0.469400,0.470100,0.470300,0.471100,0.471300,0.471400,0.471400,0.471400,0.469800,0.469800,0.469700,0.469700,0.469700,0.469700,0.469600,0.470000,0.470400,0.470400,0.470100,0.470000,1.000000,1.000000,0.428700,0.428800,0.428800,0.429700,0.429700,0.429700,0.429800,0.428700,0.428600,0.428400,0.428300,0.426500,0.424900,0.424300,0.424300,0.424300,0.424300,0.427600,0.427600,0.427400,0.427500,0.426800,1.000000,0.427500,0.427800,0.427800,0.427700,0.427600,0.427600,0.427400,0.427300,0.427200,0.427000,0.426900,0.426500,0.426500,1.000000,1.000000,1.000000,1.000000,1.000000,1.000000,1.000000,1.000000,1.000000,1.000000,1.000000,1.000000,1.000000,1.000000,1.000000,1.000000,1.000000,1.000000,1.000000,1.000000,0.427400,0.427300,0.427300,0.427300,0.427400,0.427400,0.427400,0.427400,0.426000,0.425700,0.425500,0.425500,1.000000,1.000000,1.000000,1.000000,1.000000,1.000000,1.000000,0.466900,0.464600,0.464400,0.464400,1.000000,0.465700,0.465700,0.464900,0.463700,0.463700,0.463700,0.463600,0.462300,1.000000,1.000000,0.425300,0.423200,0.423200,0.423100,0.424900,0.424900,0.425000,0.425000,0.425000,1.000000,1.000000,1.000000,1.000000,1.000000,1.000000,1.000000,1.000000,0.462000,1.000000,1.000000,1.000000,1.000000,1.000000,1.000000,1.000000,0.462400,0.462500,1.000000,1.000000,1.000000,0.425500,0.425500,0.425500,1.000000,1.000000,1.000000,1.000000,1.000000,1.000000,1.000000,1.000000,1.000000,0.461700,0.462800,0.464500,0.464900,0.464900,0.464800,0.464700,0.464000,0.463900,1.000000,0.463700,0.463700,1.000000,0.462900,0.461000,0.461000,0.463100,0.463400,0.463400,0.463400,0.463300,0.463200,0.463200,0.463200,0.464200,1.000000
0.474400,0.475600,1.000000,1.000000,1.000000,1.000000,1.000000,1.000000,1.000000,1.000000,1.000000,1.000000,1.000000,1.000000,1.000000,0.473000,0.472900,0.472900,0.471100,0.471100,1.000000,1.000000,1.000000,1.000000,1.000000,1.000000,0.471900,0.471500,0.471400,0.471400,0.471400,0.472600,0.471100,0.470100,0.470000,0.471200,0.471200,1.000000,1.000000,1.000000,1.000000,0.470400,0.471900,0.472200,0.472200,0.472100,0.469700,0.469700,0.469600,0.469600,1.000000,1.000000,1.000000,0.472200,0.472200,0.472200,0.472200,0.470000,0.469600,1.000000,0.469600,0.470000,0.470000,0.470300,0.470700,0.470800,0.470600,0.470500,0.470400,0.470400,0.470500,0.470600,0.470700,0.469800,0.469800,0.469800,0.470000,0.470100,0.470000,0.469900,0.471200,0.471300,0.471300,0.471300,0.469800,0.469800,0.469800,0.469700,0.469700,0.469700,0.469700,0.469800,0.470500,0.470400,0.470200,0.469900,1.000000,0.428600,0.428600,0.428600,0.428700,0.429600,0.429700,0.429700,0.429800,0.429800,0.428600,0.428500,0.428200,0.426900,0.425000,1.000000,1.000000,1.000000,1.000000,1.000000,1.000000,1.000000,1.000000,1.000000,1.000000,1.000000,1.000000,1.000000,0.427500,0.427600,0.427600,0.427400,0.427300,0.427200,0.427000,0.427000,0.426900,1.000000,1.000000,1.000000,1.000000,1.000000,1.000000,0.464400,0.464300,0.464300,1.000000,1.000000,0.464000,0.464000,0.464000,1.000000,1.000000,1.000000,1.000000,1.000000,1.000000,1.000000,0.427400,0.427400,0.427400,0.427400,0.427500,0.427600,0.427600,0.427500,0.427400,0.426000,0.425900,0.425900,1.000000,1.000000,1.000000,1.000000,1.000000,0.467000,0.467000,0.467000,0.465300,0.464400,1.000000,0.464300,0.465700,0.465700,0.465700,0.463600,0.463600,0.463600,0.463600,1.000000,1.000000,0.425300,0.425200,0.423300,0.423400,0.424600,0.424800,0.424900,0.424900,0.425000,0.425000,1.000000,1.000000,1.000000,1.000000,1.000000,1.000000,1.000000,1.000000,1.000000,1.000000,1.000000,1.000000,1.000000,1.000000,1.000000,0.462400,0.462500,0.462500,1.000000,1.000000,1.000000,0.425500,0.425500,0.423900,1.000000,1.000000,1.000000,1.000000,1.000000,0.424900,0.428100,1.000000,1.000000,0.461800,0.462800,0.464900,0.465000,0.464900,0.464800,0.464800,0.463800,0.463700,0.463700,1.000000,1.000000,1.000000,0.461000,0.461000,0.461000,0.461100,0.462900,1.000000,1.000000,0.463200,0.463200,0.463200,1.000000,0.464400,0.463100
0.475600,0.475600,0.473800,0.471700,1.000000,1.000000,1.000000,1.000000,1.000000,1.000000,1.000000,1.000000,1.000000,1.000000,1.000000,1.000000,1.000000,0.472900,1.000000,0.471100,1.000000,1.000000,1.000000,1.000000,1.000000,1.000000,1.000000,0.472400,0.472100,1.000000,0.472400,1.000000,0.469900,0.469900,1.000000,0.471200,0.471200,1.000000,1.000000,1.000000,0.470500,0.470500,0.472000,0.472300,0.472300,0.471600,0.469700,0.469700,0.469700,0.469700,1.000000,1.000000,0.472100,0.472100,0.472200,0.472200,0.472200,0.472200,0.470000,1.000000,0.469800,0.470000,0.470100,0.470600,0.470700,0.470800,0.470700,0.470600,0.470600,0.470700,0.470800,0.470900,0.471000,0.470600,0.470200,0.470200,0.470200,0.470200,0.470000,0.469800,0.469800,0.471200,0.471200,0.471200,0.469800,0.469800,0.469700,0.469700,0.469800,0.469800,0.469800,0.470000,0.470500,0.470500,0.470300,0.470000,1.000000,0.428600,0.428600,0.428600,0.428600,0.428700,0.429600,1.000000,1.000000,1.000000,1.000000,1.000000,1.000000,1.000000,1.000000,1.000000,1.000000,1.000000,1.000000,1.000000,1.000000,1.000000,1.000000,1.000000,1.000000,1.000000,1.000000,1.000000,0.427400,0.427500,0.427600,0.427400,0.427100,0.427000,0.427000,0.427000,0.426900,1.000000,1.000000,1.000000,1.000000,1.000000,1.000000,0.464400,0.464300,0.464200,1.000000,1.000000,1.000000,1.000000,1.000000,1.000000,1.000000,1.000000,1.000000,1.000000,1.000000,1.000000,0.427500,0.427500,0.427500,0.427600,0.427700,0.427700,0.427700,0.427600,0.427600,0.427500,0.426000,1.000000,1.000000,1.000000,0.464000,0.464200,0.466900,0.467000,0.467100,0.467100,0.467100,0.464300,0.464300,0.464300,0.464300,0.465700,0.465700,0.464800,0.463600,0.463600,1.000000,1.000000,1.000000,0.425200,0.425000,0.424300,0.424500,0.424600,0.424700,0.424800,0.424900,0.424900,0.425000,1.000000,1.000000,1.000000,1.000000,1.000000,1.000000,1.000000,1.000000,1.000000,1.000000,1.000000,1.000000,1.000000,1.000000,1.000000,1.000000,1.000000,1.000000,1.000000,1.000000,1.000000,0.425600,0.425100,0.423900,1.000000,1.000000,1.000000,1.000000,1.000000,0.424900,0.428100,0.440100,1.000000,1.000000,1.000000,0.466200,0.466200,0.466100,0.466000,0.465000,0.463700,0.463700,0.463700,1.000000,0.463700,0.463700,0.460700,0.460400,0.459200,0.459200,0.461100,1.000000,1.000000,1.000000,1.000000,1.000000,1.000000,1.000000,1.000000
0.475600,0.475100,0.474100,0.470500,1.000000,1.000000,0.470300,0.471700,0.471800,0.473000,1.000000,1.000000,0.474400,0.474400,1.000000,1.000000,1.000000,0.472900,0.472900,0.471100,1.000000,1.000000,1.000000,1.000000,1.000000,1.000000,1.000000,0.472700,0.472400,0.472500,0.472600,0.472900,0.469900,0.469900,0.469900,0.470500,0.471400,1.000000,1.000000,1.000000,0.470500,0.470400,0.471800,0.472400,0.472400,0.471500,0.469700,0.469700,0.469700,0.469800,0.470500,1.000000,0.471800,0.473200,0.473300,0.472900,0.472800,0.472200,0.470900,0.470900,0.470900,0.470900,0.470800,0.470800,0.470800,0.470800,0.470800,0.470700,0.470700,0.470800,0.470900,0.470900,0.471000,0.470800,0.470600,0.470400,0.470300,0.470200,0.469900,0.469800,0.469700,0.469700,0.470100,0.471200,0.469700,0.469700,0.469700,0.469700,0.469800,0.469800,0.469900,0.470400,0.470400,0.470400,0.470300,0.470200,1.000000,0.428600,0.428600,0.428600,0.428600,0.428600,1.000000,1.000000,1.000000,1.000000,1.000000,1.000000,1.000000,1.000000,1.000000,1.000000,1.000000,1.000000,1.000000,1.000000,0.467200,0.467200,0.467200,1.000000,1.000000,1.000000,1.000000,1.000000,0.427500,0.428100,0.428200,0.427700,0.426900,0.427000,0.426900,0.426900,0.426900,1.000000,1.000000,1.000000,1.000000,1.000000,0.466200,0.464400,0.465800,0.465800,1.000000,1.000000,0.464000,0.463800,0.463700,0.463700,1.000000,1.000000,1.000000,0.464400,0.464400,1.000000,0.427500,0.427500,0.427600,0.427600,0.427600,0.427600,0.427600,0.427600,0.427600,0.426200,0.426000,0.425800,1.000000,1.000000,0.464100,1.000000,0.467000,0.467100,0.467100,0.467100,0.467100,0.465700,0.464300,0.464300,0.465800,0.465800,1.000000,1.000000,0.463600,1.000000,1.000000,1.000000,1.000000,0.426600,0.425300,0.424600,0.424600,0.424600,0.424700,0.424800,0.424900,0.424900,0.425000,1.000000,1.000000,1.000000,0.441800,0.440400,0.436900,0.436800,0.436800,0.436800,1.000000,1.000000,1.000000,1.000000,1.000000,1.000000,1.000000,1.000000,1.000000,1.000000,1.000000,1.000000,0.425600,0.425600,0.423800,1.000000,1.000000,1.000000,1.000000,1.000000,0.425000,0.428100,0.440100,1.000000,1.000000,1.000000,0.467600,0.466200,0.466100,0.466000,0.466000,0.465700,0.464600,0.464700,0.464700,0.464700,0.463700,0.460600,0.460500,0.459200,1.000000,1.000000,1.000000,1.000000,1.000000,1.000000,1.000000,1.000000,1.000000,1.000000
0.475700,0.475700,1.000000,0.474300,0.474300,0.474000,0.473500,0.473200,0.473100,0.473000,1.000000,1.000000,0.474400,0.474400,0.474400,1.000000,1.000000,0.474800,0.473300,0.473200,1.000000,1.000000,1.000000,0.472900,0.472900,0.472800,0.472800,1.000000,0.472600,0.472600,0.472600,0.473100,0.472900,0.469900,0.470700,0.471000,0.471700,1.000000,1.000000,1.000000,0.469800,0.469800,0.470400,0.472400,0.472400,0.472400,0.470600,0.470000,0.471100,0.471000,0.470900,0.471700,0.472400,0.473200,0.473800,0.473000,0.472900,0.472600,1.000000,0.470900,0.470900,0.470900,0.471400,0.473000,0.472900,0.472800,0.470900,0.470900,0.470800,0.470800,0.470900,0.470900,0.470900,0.470800,0.470600,0.470600,0.470400,0.470300,0.470000,0.469800,0.469700,0.469700,0.469800,0.470000,0.469600,0.469600,0.469600,0.469700,0.470600,0.470600,0.470600,0.470600,0.470300,0.470200,0.470100,0.470200,1.000000,1.000000,0.428600,0.428600,0.428600,0.428600,1.000000,1.000000,1.000000,1.000000,1.000000,1.000000,1.000000,1.000000,0.464500,0.464600,1.000000,1.000000,1.000000,0.467200,0.467300,0.467300,0.467200,0.465500,0.461200,0.461200,1.000000,1.000000,0.428100,0.428100,0.428200,0.426800,0.426800,0.426800,0.426800,0.427800,0.427800,1.000000,0.151700,0.151700,1.000000,1.000000,0.466500,0.466500,0.465800,1.000000,1.000000,1.000000,1.000000,1.000000,1.000000,0.463700,1.000000,0.463500,0.463400,0.463300,1.000000,1.000000,0.427600,0.427600,0.427600,0.427600,0.427600,0.427600,0.427600,0.427600,0.426400,0.426200,0.426000,1.000000,1.000000,1.000000,1.000000,0.464100,0.467000,0.467100,0.467100,0.467000,0.466900,0.466200,0.466000,0.466000,0.465900,1.000000,0.465800,1.000000,1.000000,1.000000,1.000000,1.000000,0.429600,0.428000,0.426400,0.424700,0.424700,0.424700,0.424800,0.424800,0.424900,0.424900,0.425000,0.426200,0.436600,1.000000,0.438700,0.438700,0.437000,0.437000,0.436800,0.436800,1.000000,1.000000,1.000000,1.000000,0.441800,1.000000,1.000000,1.000000,1.000000,1.000000,1.000000,1.000000,0.427000,0.427000,0.425800,0.422700,1.000000,1.000000,1.000000,1.000000,0.424900,1.000000,0.442800,1.000000,1.000000,1.000000,0.466400,0.465400,0.464100,0.464100,0.466000,0.465900,0.465700,0.464800,0.464700,0.463800,0.462700,0.460600,0.460600,1.000000,1.000000,1.000000,1.000000,1.000000,1.000000,1.000000,1.000000,1.000000,1.000000,1.000000
0.475700,1.000000,1.000000,0.474400,0.474300,0.474200,0.473700,0.473200,1.000000,1.000000,1.000000,1.000000,0.474400,1.000000,1.000000,1.000000,1.000000,0.474400,1.000000,0.473200,0.473200,0.473200,0.473100,0.473000,0.472900,0.472800,1.000000,1.000000,0.472600,0.472700,0.472700,0.473200,0.472900,0.472600,0.472500,0.471800,0.471700,1.000000,1.000000,1.000000,0.469800,0.469800,0.470400,0.472500,0.472500,1.000000,0.471200,0.471200,0.471200,0.471200,0.471200,0.472400,0.472900,0.473000,0.473900,0.474000,0.472900,0.472900,0.472800,0.470900,0.470900,0.470900,0.473000,0.473000,0.472900,0.472800,0.471000,0.471000,0.470900,0.470800,0.469500,0.469500,0.470900,0.470700,0.470600,0.470500,0.470300,0.470200,0.469900,0.469800,0.469700,0.469700,0.469700,0.469700,0.469600,0.469600,0.469600,0.469600,0.470600,0.470700,0.470700,0.470700,0.470200,0.470100,0.470100,1.000000,1.000000,1.000000,0.430300,0.428600,0.428600,0.430000,1.000000,1.000000,1.000000,1.000000,1.000000,1.000000,1.000000,0.465100,0.464500,0.464600,0.466300,0.466500,1.000000,1.000000,0.467300,0.467300,0.467200,0.462800,0.461600,0.461200,1.000000,1.000000,0.428000,0.428100,0.428200,0.426700,0.426800,0.426800,0.426800,0.427900,0.427900,1.000000,1.000000,0.151700,1.000000,1.000000,0.466400,0.466500,0.465900,1.000000,1.000000,1.000000,1.000000,1.000000,1.000000,1.000000,1.000000,0.463500,1.000000,0.463300,1.000000,1.000000,1.000000,0.427600,0.427600,0.427600,0.427600,0.427600,0.427600,0.427500,0.426400,0.426300,0.426100,0.425800,1.000000,1.000000,0.464200,0.464100,0.467100,0.467100,0.466000,0.465200,0.465200,0.466200,0.466200,0.466200,0.466100,0.467700,0.465900,1.000000,1.000000,1.000000,1.000000,0.436700,0.429500,0.429500,0.427800,0.425200,0.424800,0.424700,0.424800,0.425000,0.426400,0.426300,0.426200,0.427600,0.436800,1.000000,0.437600,0.437300,0.437000,0.436900,0.436800,0.438200,1.000000,1.000000,1.000000,1.000000,0.441800,0.442000,1.000000,1.000000,1.000000,1.000000,1.000000,1.000000,0.427000,0.427000,0.427000,1.000000,1.000000,1.000000,1.000000,1.000000,0.424900,0.438200,0.442900,1.000000,1.000000,1.000000,0.464700,0.464200,0.464100,0.464100,0.464100,0.465900,0.465800,0.465000,1.000000,1.000000,0.462700,0.460600,1.000000,1.000000,1.000000,1.000000,1.000000,1.000000,1.000000,1.000000,1.000000,1.000000,1.000000,1.000000
0.475700,1.000000,1.000000,0.473000,0.473100,0.473500,0.473600,0.473300,0.471800,0.470900,1.000000,1.000000,0.474200,0.474200,0.474000,0.474400,0.474400,0.473200,0.473200,0.473200,0.474600,0.474700,0.473300,0.473100,0.473000,0.473000,1.000000,1.000000,1.000000,0.472700,0.472800,0.473300,0.473200,0.472700,0.472600,0.472200,0.471900,0.471800,1.000000,0.473200,0.471600,0.470300,0.472600,0.472600,0.474000,1.000000,0.475800,0.471200,0.471300,0.471300,0.471500,0.472400,0.472800,0.472700,0.472700,0.472700,0.472700,0.472700,0.472700,0.472700,0.470900,0.470900,0.473000,0.473000,0.472900,0.472700,0.471300,0.471200,0.471000,0.469500,0.469500,0.469500,0.470600,0.470600,0.470500,0.470400,0.470000,0.469900,0.469900,0.469800,0.469700,0.469700,0.469700,0.469700,0.469600,0.469600,0.469600,0.469600,0.470900,0.470900,0.471000,0.471000,0.470000,0.470000,0.470000,1.000000,1.000000,1.000000,0.430400,0.430400,0.430300,1.000000,1.000000,1.000000,1.000000,1.000000,1.000000,1.000000,0.468800,0.467200,0.466000,0.466000,1.000000,1.000000,1.000000,0.468900,0.467500,0.467600,0.467200,0.465400,0.461800,1.000000,1.000000,1.000000,0.427900,0.428000,0.427500,0.426700,0.426700,0.426700,0.428000,0.428000,0.428000,1.000000,0.151700,0.151700,0.151700,1.000000,0.466000,0.466000,0.466000,1.000000,1.000000,1.000000,1.000000,1.000000,1.000000,0.463700,0.463600,0.464600,1.000000,0.463300,1.000000,1.000000,1.000000,0.427700,0.427700,0.427600,0.427600,0.427600,0.427600,0.427600,0.426700,0.426400,0.426400,1.000000,1.000000,1.000000,1.000000,1.000000,1.000000,0.465200,0.465200,0.465200,0.465200,0.465200,0.466300,0.466300,0.467800,0.467700,0.466000,1.000000,1.000000,1.000000,1.000000,0.436700,0.429500,0.429400,0.429400,0.425800,0.425700,0.425500,0.426300,0.426400,0.426400,0.426400,0.426400,0.427600,0.437100,0.438400,0.437500,1.000000,0.437100,1.000000,0.438300,1.000000,1.000000,1.000000,0.440400,0.440400,0.440400,0.442000,1.000000,1.000000,1.000000,1.000000,1.000000,1.000000,0.426800,0.427000,0.427100,0.427200,1.000000,1.000000,1.000000,1.000000,0.424900,1.000000,1.000000,1.000000,1.000000,0.466500,0.464200,0.464100,0.464100,0.464000,0.464000,0.464000,1.000000,1.000000,1.000000,1.000000,1.000000,1.000000,1.000000,1.000000,1.000000,1.000000,1.000000,1.000000,1.000000,1.000000,1.000000,1.000000,1.000000,1.000000
0.471500,1.000000,1.000000,0.470600,0.473000,0.473400,0.473500,1.000000,1.000000,1.000000,1.000000,0.473200,0.473900,0.473900,0.472600,0.473900,0.473300,0.473000,0.473000,0.473000,0.474800,0.474800,0.474700,0.473200,0.473200,0.473100,1.000000,0.471400,0.471500,0.472700,0.472800,0.474800,0.473300,0.472800,0.472500,0.472300,0.472400,0.472200,0.473000,0.473200,0.473200,0.472800,0.472800,0.472800,0.474100,0.475700,0.474500,0.471300,0.471400,0.471400,0.471700,0.472000,0.472300,0.472600,0.472600,0.472600,0.472600,0.472600,0.472600,0.472600,0.472700,0.472900,0.473000,0.472900,0.472800,0.472000,0.471800,0.471700,0.471600,0.469400,0.469400,0.469400,0.470600,0.470600,0.470500,0.470400,0.469900,0.469900,0.469900,0.469900,0.469800,0.469800,0.469700,0.469700,0.469700,0.469700,0.469700,0.470600,0.470900,0.471000,0.471000,0.471000,0.470100,0.470000,0.470000,0.470100,1.000000,1.000000,0.430400,0.430400,0.430300,0.430300,1.000000,1.000000,1.000000,0.469100,1.000000,0.469200,0.468900,0.468700,0.467200,0.467200,1.000000,1.000000,0.469200,0.469800,0.468000,1.000000,0.466900,1.000000,1.000000,1.000000,1.000000,0.427700,0.427500,0.427200,0.426900,0.426800,0.426800,0.428100,0.428100,0.428100,0.428000,1.000000,0.151700,0.151700,1.000000,1.000000,0.466000,0.466000,1.000000,1.000000,1.000000,1.000000,1.000000,1.000000,1.000000,1.000000,1.000000,1.000000,1.000000,1.000000,1.000000,1.000000,0.427800,0.427800,0.427800,0.427700,0.427600,0.427600,0.427600,0.427700,0.427700,0.427600,0.426400,0.427900,1.000000,1.000000,1.000000,1.000000,0.465300,0.465200,0.465200,0.465200,0.465200,0.465600,0.466400,0.467800,0.467800,0.466200,0.464600,1.000000,1.000000,1.000000,1.000000,0.436600,0.429400,0.429300,0.429200,0.426000,0.425900,0.425800,0.426300,0.426300,0.426300,0.426400,0.426400,0.430100,0.437400,0.437400,1.000000,0.440700,0.440800,0.440800,1.000000,1.000000,1.000000,1.000000,0.440400,0.440400,0.440400,0.442400,1.000000,1.000000,1.000000,1.000000,1.000000,0.426200,0.426400,0.426900,0.428000,1.000000,1.000000,1.000000,1.000000,1.000000,1.000000,1.000000,0.436800,0.462200,0.462200,0.464000,0.464000,0.464000,0.464000,0.464000,0.464000,1.000000,0.462900,0.462900,1.000000,0.461600,0.461800,0.441700,1.000000,1.000000,1.000000,1.000000,1.000000,1.000000,0.444800,0.444800,1.000000,1.000000,1.000000,1.000000
0.471400,0.471300,1.000000,1.000000,0.470500,0.473400,0.473500,0.473500,1.000000,1.000000,1.000000,0.473200,0.473000,0.472600,0.472700,0.472700,0.472800,0.472900,1.000000,0.473000,0.474900,0.475500,0.474900,1.000000,0.473400,0.472100,1.000000,0.471400,0.472600,0.475200,0.475200,0.475000,0.474600,0.474600,0.472600,0.472600,0.472500,1.000000,0.472900,0.473100,0.473200,0.472900,0.472800,0.472900,0.474100,0.474600,0.474300,0.474200,0.471900,0.471900,0.472000,0.472100,0.472300,0.472400,0.472500,0.472400,0.472400,0.472400,0.472400,0.472500,0.472600,0.472800,0.472900,0.472900,0.472100,0.472000,0.471900,0.471800,0.471700,0.471600,0.470600,0.469400,0.470600,0.470600,0.470500,0.470500,0.470000,0.469900,0.469900,0.469900,0.470000,0.472300,0.469800,0.469800,0.469800,0.469900,0.470500,0.470600,0.471000,0.471000,0.471100,0.470700,0.470300,0.470300,0.470200,1.000000,0.470200,1.000000,0.430400,0.430400,0.430400,0.430400,1.000000,1.000000,0.469100,0.469100,0.469200,0.469300,0.469300,0.469200,0.469200,1.000000,1.000000,1.000000,0.469500,0.470000,0.470000,1.000000,1.000000,1.000000,1.000000,1.000000,1.000000,1.000000,0.427300,0.427100,0.426900,0.426800,0.428200,0.428100,0.428100,0.428100,0.428100,1.000000,0.152100,0.152000,1.000000,1.000000,0.466000,0.465900,0.465200,1.000000,1.000000,1.000000,1.000000,1.000000,0.460800,1.000000,1.000000,1.000000,1.000000,1.000000,1.000000,1.000000,0.428000,0.427900,0.427900,0.427800,0.427800,0.427800,0.427700,0.427700,0.427700,0.427700,0.427700,0.427800,1.000000,1.000000,1.000000,1.000000,0.465300,0.465200,0.465200,0.467400,0.467600,0.468900,1.000000,1.000000,1.000000,0.466200,0.465200,0.464400,1.000000,1.000000,1.000000,0.433700,0.429300,0.429300,0.426300,0.426100,0.426100,0.426200,0.426200,0.426200,0.426100,0.426200,0.426200,0.431500,0.437400,0.437400,0.440700,0.440700,1.000000,0.440800,1.000000,0.441900,0.441900,0.440400,0.440400,0.440400,0.440400,0.442600,1.000000,1.000000,1.000000,1.000000,1.000000,0.426200,0.426300,0.426300,0.426500,1.000000,1.000000,1.000000,1.000000,1.000000,1.000000,1.000000,0.436700,1.000000,1.000000,1.000000,0.464000,0.464000,0.463900,0.463900,1.000000,0.460500,1.000000,0.461100,1.000000,1.000000,0.443500,1.000000,1.000000,1.000000,1.000000,1.000000,0.445300,1.000000,0.445000,0.444700,0.444700,0.444600,1.000000,1.000000
0.471300,0.471400,1.000000,1.000000,0.472500,1.000000,1.000000,1.000000,1.000000,1.000000,1.000000,1.000000,0.473000,0.472900,0.472800,0.472800,0.472800,0.472900,0.472900,0.472900,0.474900,1.000000,1.000000,1.000000,1.000000,0.472000,0.472000,1.000000,0.472500,0.472600,0.475000,0.474700,0.473700,0.473700,1.000000,0.472700,0.472600,0.472700,0.472700,0.472700,0.472600,0.472600,0.472700,0.473500,0.474000,0.474200,0.474200,1.000000,1.000000,0.472200,0.472300,0.472300,0.472400,0.472400,0.472400,0.472400,0.472300,0.472300,0.472400,0.472400,0.472600,0.472800,0.472900,0.472900,0.472100,0.472100,0.472000,0.472000,0.472100,0.472500,0.472500,0.470600,0.470600,0.470600,0.471100,0.472100,0.472200,0.471000,0.470900,0.472200,0.473100,0.472400,0.470700,0.469800,0.469800,0.470500,0.470500,0.470500,0.469300,0.469400,0.469800,0.470300,0.470400,0.470400,0.470300,0.470300,0.470300,1.000000,0.430500,0.430500,0.430500,0.430500,0.431500,1.000000,0.469100,0.469200,0.469200,0.469300,0.469300,0.469300,0.469300,1.000000,0.468600,0.468600,0.468600,0.470000,0.470000,1.000000,1.000000,1.000000,1.000000,1.000000,1.000000,1.000000,0.428300,0.428400,0.428400,0.428300,0.428300,0.428200,0.428100,0.428100,0.428100,1.000000,0.152100,0.152100,1.000000,1.000000,0.469500,0.469500,0.465400,1.000000,1.000000,1.000000,1.000000,1.000000,0.461000,0.459700,1.000000,1.000000,1.000000,1.000000,1.000000,1.000000,0.428400,0.428300,0.428100,0.427900,0.427900,0.427800,0.427800,0.427700,0.427600,0.427600,0.427600,0.427600,1.000000,1.000000,1.000000,1.000000,0.465300,0.465300,0.465200,0.467400,0.468900,0.468900,1.000000,1.000000,0.467500,0.466300,0.467300,1.000000,1.000000,1.000000,1.000000,0.434200,0.433800,0.426300,0.426300,0.426300,0.426200,0.426200,0.426100,0.426100,0.426100,0.426100,0.427100,0.435000,0.437400,0.438800,0.440600,0.440700,1.000000,1.000000,1.000000,0.442900,0.442900,0.440500,1.000000,1.000000,0.440500,0.442600,1.000000,1.000000,1.000000,1.000000,1.000000,1.000000,0.426200,0.426300,0.426400,0.426400,1.000000,1.000000,1.000000,1.000000,1.000000,0.434100,0.438200,0.444800,0.447900,0.462200,0.463900,0.463900,0.463900,0.463900,1.000000,0.459900,0.448000,0.445400,0.445400,0.445400,0.443600,0.443600,0.443600,0.443700,0.445000,0.445300,0.445300,0.445300,0.444900,0.444700,0.444600,0.444600,1.000000,1.000000
0.470700,0.470100,1.000000,0.470100,0.473600,0.473600,1.000000,1.000000,1.000000,1.000000,1.000000,1.000000,1.000000,0.473000,0.472900,0.472900,0.472900,0.472900,1.000000,1.000000,1.000000,1.000000,1.000000,1.000000,0.473200,1.000000,1.000000,1.000000,1.000000,0.472600,1.000000,1.000000,0.473900,1.000000,1.000000,0.472800,0.472800,0.472800,0.472800,0.472700,0.472600,0.472600,0.472600,0.473900,0.474000,0.474100,0.474100,0.474100,1.000000,0.472500,0.472400,0.472400,0.472400,0.472400,0.471800,0.471800,1.000000,0.472000,0.472000,0.472000,0.472400,0.472900,0.472900,0.472000,0.472000,0.472000,0.472100,0.472100,0.472400,0.472600,0.472600,0.471200,0.470800,0.470800,0.472200,0.472200,0.472200,0.472200,0.472200,0.473400,0.473300,0.472700,0.472300,1.000000,0.472100,0.470600,0.470500,0.469300,0.469300,0.469400,0.469500,0.469800,0.470400,0.470500,0.470500,0.471200,1.000000,1.000000,0.430900,0.430600,0.430600,0.431600,0.431600,1.000000,0.469100,0.469200,0.469200,0.469200,0.469200,0.469300,0.469300,0.469200,0.468600,0.468600,0.468600,0.469600,0.468400,0.468300,1.000000,1.000000,1.000000,1.000000,1.000000,1.000000,0.429200,0.429300,0.429300,0.429000,0.428300,0.428200,0.428100,0.428100,0.428100,1.000000,0.152200,0.152200,1.000000,1.000000,1.000000,0.468700,0.465200,1.000000,1.000000,1.000000,1.000000,0.463600,1.000000,0.461000,1.000000,1.000000,0.459500,1.000000,1.000000,1.000000,1.000000,0.428400,0.428300,0.428200,0.428100,0.427900,0.427800,0.427700,0.427600,0.427600,0.427500,1.000000,1.000000,0.465700,0.465700,1.000000,0.465300,0.465300,0.465900,0.468900,0.468900,0.467800,0.467700,0.467600,0.467500,0.467400,0.467400,1.000000,1.000000,1.000000,1.000000,0.434100,0.434000,0.426300,0.426300,0.426300,0.426200,0.426200,0.426100,0.426100,0.426000,0.427000,0.429300,0.436700,0.438700,0.439900,0.440300,0.440400,0.439700,0.439700,0.442900,0.442900,0.442700,0.440600,0.440600,1.000000,0.442600,1.000000,1.000000,1.000000,1.000000,1.000000,1.000000,1.000000,0.426300,0.426300,1.000000,1.000000,1.000000,1.000000,1.000000,1.000000,1.000000,1.000000,0.438200,0.444800,1.000000,1.000000,0.464000,0.464000,0.464000,0.464000,1.000000,0.448000,1.000000,0.445400,0.445400,0.445400,0.444200,0.443600,0.443500,0.443800,0.445200,0.445300,0.444600,0.444400,0.444500,0.444500,0.444600,1.000000,1.000000,0.443400
0.470700,0.470000,0.470000,0.470100,0.473600,0.473600,1.000000,1.000000,1.000000,1.000000,1.000000,1.000000,1.000000,1.000000,0.472900,0.472900,0.472900,0.472900,1.000000,1.000000,1.000000,1.000000,1.000000,1.000000,1.000000,1.000000,1.000000,0.474700,0.474200,1.000000,0.474100,1.000000,1.000000,0.473900,1.000000,0.472900,0.472800,0.472800,0.472800,0.472700,0.472600,1.000000,0.473800,0.474100,0.474000,0.474000,0.474000,0.474000,1.000000,1.000000,0.472600,0.472600,0.472500,0.472400,0.471800,0.471800,1.000000,0.472000,0.472000,0.472000,0.472300,0.472900,0.471900,0.471900,0.472000,0.472000,0.472200,0.472200,0.472600,0.472600,0.472600,0.472500,0.472400,0.472200,0.472200,0.472200,0.472200,0.472200,0.472200,0.473400,0.473300,0.472300,0.472200,1.000000,0.472100,0.472100,0.470600,0.469300,0.469300,0.469400,0.469500,0.469600,0.470200,0.470600,0.470900,0.471200,0.471200,1.000000,0.432000,0.432000,0.431700,0.431700,0.431600,1.000000,0.469100,0.469100,0.469100,0.469100,0.469100,0.469200,0.469200,0.469200,0.468600,0.468600,0.468400,0.468600,0.468000,0.467000,1.000000,0.459200,0.459200,1.000000,1.000000,1.000000,0.430200,0.430200,0.430100,0.430000,0.428500,0.428300,0.428200,0.428100,0.428100,1.000000,1.000000,0.152200,0.152200,1.000000,0.468800,0.468600,1.000000,1.000000,0.458800,1.000000,0.463500,0.463500,1.000000,0.460900,0.460900,0.459500,1.000000,1.000000,1.000000,1.000000,1.000000,0.428400,0.428300,0.428200,0.428100,0.428000,0.428000,0.427800,0.427600,0.427500,0.427500,0.427500,1.000000,0.465900,0.465800,0.465900,1.000000,0.465700,0.466200,0.468900,0.468900,0.467800,0.467700,0.467600,0.467500,0.467400,0.467900,1.000000,1.000000,1.000000,0.442200,0.437400,0.434100,0.429100,0.426300,0.426300,0.426200,0.426200,0.426100,0.426100,0.426000,0.428700,0.429300,0.436700,0.438600,0.439800,0.439800,0.439800,0.439700,0.439700,0.442900,0.442800,0.441300,0.440600,0.440600,1.000000,1.000000,1.000000,1.000000,1.000000,1.000000,1.000000,1.000000,1.000000,0.425300,0.426300,1.000000,1.000000,1.000000,1.000000,1.000000,1.000000,1.000000,1.000000,1.000000,1.000000,1.000000,1.000000,0.464000,0.464000,0.462500,0.462500,1.000000,1.000000,0.445500,0.445400,0.445400,0.445300,0.443800,0.443600,0.443400,0.443400,0.443500,0.445200,0.444200,0.444300,0.444400,0.444400,0.444600,0.442400,1.000000,0.443200
1.000000,1.000000,0.468600,1.000000,0.473600,0.473600,0.475200,1.000000,1.000000,1.000000,1.000000,1.000000,0.474300,0.474300,0.473000,0.472900,0.472900,0.474400,1.000000,1.000000,1.000000,1.000000,1.000000,0.473000,0.473000,0.474500,1.000000,0.474800,0.474300,0.474200,0.474000,0.474000,0.474000,0.473900,0.473900,0.472800,0.472700,0.472700,0.474600,0.474600,1.000000,0.474400,1.000000,0.475300,0.475300,0.474000,0.474000,1.000000,0.472900,0.472900,0.472900,0.474400,0.474400,0.472600,1.000000,1.000000,1.000000,0.472000,0.472000,0.472200,0.472800,0.473200,0.471900,0.471900,0.471900,0.472000,0.472500,0.473000,0.472800,0.472700,0.472700,0.472500,0.472400,0.472300,0.472300,0.472200,0.472200,0.472200,0.472200,0.472400,0.472000,0.472000,0.472000,0.472000,0.472100,0.472100,0.472100,0.469300,0.469400,0.469400,0.469500,0.469600,0.470600,0.470900,0.471100,0.471200,0.471200,1.000000,0.432000,0.431800,0.431700,0.431600,0.431600,1.000000,1.000000,0.469200,0.469100,0.469100,0.469100,1.000000,1.000000,0.468600,0.468600,0.467700,0.467700,0.467700,0.467700,0.466900,1.000000,0.461000,0.461000,0.461000,1.000000,1.000000,0.430300,0.430200,0.430100,0.430100,0.429800,0.429600,0.428200,0.428200,0.428200,1.000000,1.000000,0.150200,0.150200,0.468600,1.000000,1.000000,0.463800,0.458200,0.457200,0.458700,0.461100,0.463400,1.000000,1.000000,1.000000,0.459400,0.459400,0.459400,1.000000,1.000000,1.000000,0.428300,0.428200,0.428200,0.428200,0.428200,0.428200,0.428000,0.427600,0.427500,0.427500,0.427500,0.427400,0.466600,0.466600,1.000000,1.000000,1.000000,1.000000,0.470000,0.468700,0.468000,0.467800,0.467700,0.467600,0.467600,1.000000,1.000000,1.000000,1.000000,0.442300,0.442300,0.438800,0.432200,0.426400,0.426300,0.426300,0.426200,0.426200,0.426200,0.428100,0.428800,0.428900,0.436600,0.438400,0.438600,0.439800,0.439800,1.000000,0.440700,0.442800,0.441300,0.440600,0.439600,1.000000,1.000000,1.000000,1.000000,1.000000,1.000000,1.000000,1.000000,1.000000,1.000000,0.427400,0.426400,0.426400,1.000000,1.000000,1.000000,1.000000,1.000000,1.000000,1.000000,1.000000,1.000000,1.000000,1.000000,1.000000,0.461800,0.455400,0.455400,1.000000,0.445500,0.442100,0.442300,0.442400,0.442400,0.442200,0.442000,0.441800,0.443400,0.443400,0.443600,0.444200,0.444300,0.444400,0.444400,0.444500,0.442400,0.442400,0.442400
1.000000,0.468500,1.000000,1.000000,1.000000,1.000000,1.000000,1.000000,1.000000,0.475600,1.000000,1.000000,0.475400,0.475400,0.475400,0.475400,0.475400,0.475400,1.000000,1.000000,1.000000,1.000000,1.000000,0.472600,0.472900,0.475000,0.475000,0.475100,1.000000,1.000000,0.474000,0.474000,0.473700,0.473700,0.473400,0.472600,0.472500,0.474800,0.474700,0.474600,0.474600,0.474500,0.475500,0.475500,0.475500,0.475200,0.473900,0.473000,0.473000,0.473000,0.473000,0.473000,0.472900,0.472700,1.000000,1.000000,0.474600,0.474600,0.474700,0.474800,0.474800,0.474800,0.472400,0.471900,0.471900,0.472000,0.473200,0.473300,0.473100,0.472800,0.472700,0.472500,0.472400,0.472300,0.472300,0.472300,0.472200,0.471000,0.471000,0.472200,0.471900,0.471900,0.471900,0.472000,0.472000,0.472100,0.472100,0.470900,0.470900,0.469500,0.470700,0.470800,0.470800,0.471000,0.471100,0.471200,1.000000,1.000000,0.431800,0.431800,0.431600,0.431500,1.000000,1.000000,1.000000,0.469200,0.469200,0.469100,0.469000,1.000000,1.000000,0.467400,0.467400,0.467500,0.467600,0.467700,0.467700,0.466700,1.000000,0.461000,0.461000,0.461000,1.000000,1.000000,0.430300,0.430300,0.430200,0.430100,0.429900,0.429800,0.429400,0.428200,0.428200,1.000000,1.000000,1.000000,0.150200,1.000000,1.000000,1.000000,0.464000,0.458100,0.457100,0.457800,0.461100,1.000000,1.000000,1.000000,1.000000,0.459400,0.459400,0.459400,0.459400,1.000000,0.441800,1.000000,0.428100,0.428100,0.428200,0.428300,0.428400,0.428400,0.428300,0.428100,0.427500,0.427500,0.429500,1.000000,0.467200,1.000000,1.000000,1.000000,0.467800,0.470000,0.468400,0.468200,0.468000,0.467800,0.467700,0.467600,1.000000,1.000000,1.000000,1.000000,0.442400,0.442400,0.438800,0.432200,0.426400,0.426300,0.426300,0.426300,0.426300,0.426600,0.426700,0.428800,0.428800,0.432400,0.436600,0.438200,0.439700,0.439800,0.440000,1.000000,0.440400,0.439000,0.436900,0.436900,0.440100,1.000000,1.000000,1.000000,1.000000,1.000000,1.000000,1.000000,1.000000,1.000000,1.000000,0.427500,0.427100,1.000000,1.000000,0.390900,1.000000,1.000000,0.425200,1.000000,1.000000,1.000000,1.000000,1.000000,1.000000,1.000000,1.000000,1.000000,1.000000,0.440400,0.439000,0.439100,0.439100,0.439100,0.438100,0.438100,0.440400,0.440400,0.439300,0.439100,0.439200,0.444200,0.444300,0.444300,0.444300,0.442400,0.442400,0.442400
0.474400,1.000000,1.000000,1.000000,1.000000,1.000000,1.000000,1.000000,0.475600,0.475600,0.475500,0.475500,0.475400,0.475400,0.475300,0.475300,0.475300,0.475300,1.000000,1.000000,1.000000,0.472400,0.472400,0.472400,0.472600,0.475100,0.475200,0.475600,0.475300,0.476100,0.473700,0.473600,0.473500,0.473500,0.473400,0.472600,0.472600,0.475200,0.475200,0.474600,0.474600,0.474600,0.475600,0.475600,0.475600,0.475600,0.475100,1.000000,0.473000,0.473000,0.473000,0.473100,0.473000,1.000000,1.000000,1.000000,1.000000,0.474700,0.474700,0.474800,0.474800,0.474800,0.472600,0.472600,0.472700,0.472800,0.473300,0.473400,0.474500,0.474600,0.474500,0.472600,0.472400,0.472300,0.472300,0.472300,0.471300,0.471000,0.471000,0.471000,0.471800,0.471800,0.471800,0.471900,0.472000,0.472100,0.471000,0.470900,0.470900,0.470800,0.470800,0.470800,0.470900,0.471000,0.471100,0.471200,0.471400,0.431800,0.431700,0.431600,0.431400,0.431400,1.000000,1.000000,1.000000,0.469400,0.469300,0.469200,0.468600,1.000000,1.000000,0.467300,0.467400,0.467400,0.468500,0.468600,0.467600,0.466700,1.000000,1.000000,1.000000,0.461100,1.000000,1.000000,0.430300,0.430300,0.430200,0.430100,0.430000,0.430000,0.429800,0.429700,0.429600,1.000000,1.000000,0.152200,1.000000,1.000000,1.000000,0.467100,0.458200,0.457000,0.456900,0.456900,0.457800,0.459100,0.461200,1.000000,1.000000,0.459400,0.460600,0.460500,0.460400,0.460400,1.000000,1.000000,0.428100,0.428100,0.428200,0.428300,0.428400,0.428400,0.428400,0.429300,0.429500,0.429800,0.430000,0.467400,1.000000,0.464500,1.000000,1.000000,1.000000,1.000000,1.000000,1.000000,0.468300,1.000000,0.467800,1.000000,1.000000,1.000000,1.000000,1.000000,0.444600,0.442500,0.437700,0.430800,0.427300,0.427200,0.426500,0.426500,0.426600,0.426600,0.426700,0.426700,0.426600,0.428900,0.432500,0.436800,1.000000,0.440000,0.440000,0.440000,0.438500,0.436900,0.437000,0.437000,1.000000,1.000000,1.000000,1.000000,1.000000,1.000000,1.000000,1.000000,1.000000,1.000000,1.000000,0.427700,0.427800,1.000000,1.000000,1.000000,1.000000,1.000000,0.429700,0.429700,0.429700,1.000000,1.000000,1.000000,1.000000,1.000000,1.000000,1.000000,1.000000,0.437300,1.000000,0.437000,0.436800,0.436100,0.434600,0.434500,0.439200,0.439100,1.000000,0.439100,1.000000,0.444200,0.445000,0.444400,0.444300,0.442400,0.442400,0.443900
1.000000,1.000000,1.000000,1.000000,1.000000,1.000000,1.000000,0.475600,0.473700,0.473700,0.475500,0.475500,0.475400,0.475400,0.475300,0.475200,0.475200,0.475300,1.000000,1.000000,1.000000,1.000000,0.472300,0.472300,0.473900,0.475400,0.475600,0.475800,0.476000,1.000000,0.473600,0.473500,0.473500,0.473500,0.473400,0.473400,0.473300,0.475200,0.475200,0.474400,0.474600,0.474600,0.475600,0.475600,0.475700,0.475600,0.474500,1.000000,0.473000,0.473000,0.473100,0.473100,0.471700,0.471700,1.000000,0.473400,0.473400,1.000000,0.473600,0.474700,0.474700,0.474800,0.472800,0.472700,0.472700,0.472700,0.473500,0.474400,0.474500,0.474600,0.474600,0.474600,0.473100,0.472200,0.472200,0.472300,0.472400,0.471300,0.471000,0.471100,0.471600,0.471700,0.472900,0.473500,0.473300,0.471200,0.471100,0.471000,0.472200,0.472300,0.472400,0.472500,0.471000,0.471000,0.471200,0.471600,0.471700,1.000000,1.000000,0.431600,0.431400,0.431300,0.431300,1.000000,1.000000,0.470600,0.469400,0.469400,0.469300,0.468300,0.467200,0.467300,0.467300,0.467300,0.468600,0.469500,0.467600,1.000000,1.000000,1.000000,0.461100,0.461100,1.000000,1.000000,0.430200,0.430200,0.430200,0.430200,0.430100,0.430100,0.429900,0.430800,0.430900,0.431000,1.000000,0.152200,1.000000,1.000000,1.000000,1.000000,1.000000,1.000000,0.456700,0.456700,0.456600,0.457600,1.000000,1.000000,1.000000,1.000000,1.000000,0.460700,0.460500,1.000000,1.000000,0.428100,0.428100,0.428100,0.428200,0.429600,0.430000,0.430300,0.430200,0.430200,0.430100,1.000000,1.000000,0.469700,0.469800,0.464500,1.000000,1.000000,1.000000,1.000000,1.000000,1.000000,1.000000,1.000000,1.000000,1.000000,1.000000,1.000000,1.000000,1.000000,0.446200,0.441300,1.000000,0.427500,0.427200,0.427100,0.426800,0.426600,0.426700,0.426700,0.426700,0.426600,0.426400,0.426400,0.426400,0.432800,1.000000,1.000000,1.000000,0.440000,0.438500,0.438500,0.437000,0.437300,1.000000,1.000000,1.000000,1.000000,1.000000,1.000000,1.000000,1.000000,1.000000,1.000000,1.000000,0.427800,0.427800,1.000000,1.000000,1.000000,1.000000,1.000000,0.429700,0.429700,0.429600,0.434000,0.434200,0.434200,0.434200,0.432400,0.431800,0.431800,0.431900,0.432100,0.432400,0.432600,0.434400,0.434400,0.433200,0.434400,0.434500,1.000000,1.000000,1.000000,1.000000,1.000000,1.000000,1.000000,0.446200,0.444100,1.000000,1.000000
1.000000,1.000000,1.000000,1.000000,1.000000,1.000000,1.000000,1.000000,1.000000,0.473700,0.474000,0.474100,0.474200,0.474400,0.474700,0.475200,0.475200,0.475200,1.000000,1.000000,1.000000,0.472300,0.472300,0.472300,0.474200,0.475500,0.475600,0.475700,0.476000,1.000000,0.473600,0.473500,0.473500,0.473500,0.473400,0.473400,0.475300,0.475300,0.474100,0.473800,0.474100,0.474600,0.475600,0.475600,0.475700,0.475000,0.474400,0.474400,0.474300,0.474300,0.473100,0.473100,0.473200,0.471700,0.473700,1.000000,0.473300,0.473300,1.000000,0.474600,0.474700,0.474800,0.474800,0.472700,0.472700,0.472700,0.473200,0.473600,0.474500,0.474600,0.474600,0.474600,0.473200,0.472100,0.472200,0.472300,0.472400,0.472600,0.471200,0.471400,0.471600,0.471700,0.473500,0.473500,0.473000,0.471200,0.471200,0.471200,0.472100,0.472200,0.472400,0.472600,0.472600,0.472400,0.472000,0.471800,0.471700,1.000000,0.431600,0.431600,0.431400,0.431400,0.431300,1.000000,1.000000,0.470600,0.469400,0.469400,0.469400,0.469400,0.467200,0.467200,0.467200,0.467300,0.469600,0.469500,0.469000,1.000000,1.000000,0.461200,0.461100,0.461100,1.000000,1.000000,0.430200,0.430200,0.430200,0.430200,0.430200,0.430200,0.430200,0.430800,0.430900,1.000000,1.000000,0.152200,1.000000,1.000000,1.000000,1.000000,1.000000,1.000000,1.000000,0.456500,0.456500,0.456500,0.456400,0.456300,1.000000,1.000000,0.460900,1.000000,1.000000,1.000000,1.000000,0.428200,0.428100,0.429200,0.429400,0.429600,0.430000,0.430200,0.430200,0.430200,0.430200,1.000000,1.000000,0.472500,1.000000,0.464500,1.000000,1.000000,1.000000,1.000000,1.000000,1.000000,1.000000,1.000000,1.000000,1.000000,1.000000,1.000000,1.000000,1.000000,1.000000,0.441300,1.000000,1.000000,0.427100,0.427000,0.426900,0.426700,0.426700,0.426800,0.426700,0.426400,0.426300,0.426300,0.426400,1.000000,1.000000,1.000000,1.000000,0.441400,0.439400,0.438400,0.438400,0.440200,1.000000,1.000000,1.000000,1.000000,1.000000,1.000000,1.000000,1.000000,1.000000,1.000000,1.000000,1.000000,0.427900,1.000000,1.000000,1.000000,1.000000,1.000000,0.429700,0.429700,0.429600,0.433600,0.434100,0.434100,0.434200,0.431900,0.431700,0.431700,0.431900,0.432000,0.431700,0.432600,0.434300,0.434200,0.433000,0.433000,1.000000,1.000000,1.000000,1.000000,1.000000,1.000000,1.000000,1.000000,0.448100,0.446100,1.000000,1.000000
1.000000,1.000000,1.000000,1.000000,1.000000,1.000000,1.000000,0.475600,0.474800,0.473700,0.474000,0.474100,0.474200,1.000000,0.474600,0.475000,0.475100,0.475200,1.000000,1.000000,1.000000,1.000000,1.000000,1.000000,0.475500,0.475500,0.475600,0.475700,0.475700,1.000000,0.475200,1.000000,0.474300,0.474300,0.474100,1.000000,0.474100,1.000000,0.473800,0.473800,0.473900,0.474000,0.474500,0.474500,0.474500,0.474400,0.474300,0.474300,0.474300,0.474300,0.474400,0.474400,0.474400,0.474300,0.474200,0.474200,0.473200,0.473200,0.473200,0.474100,0.474600,0.475700,0.473500,0.472600,0.471600,0.471600,0.471700,0.472300,0.472400,0.472900,0.473100,0.473100,0.473200,0.472000,0.472000,0.472000,0.472500,0.472700,0.471400,0.471500,0.471500,0.472800,0.472800,0.472800,0.472800,0.471400,0.471400,0.471600,0.472000,0.472100,0.472400,0.472600,0.472600,0.472600,0.472000,0.471900,0.471800,1.000000,0.431800,0.431700,0.431600,0.432400,0.432500,1.000000,1.000000,0.470500,0.469300,0.469400,0.469400,0.469500,0.469600,0.468600,0.468700,0.468800,0.468900,0.469500,0.468900,1.000000,1.000000,0.461200,0.461200,0.461100,1.000000,1.000000,0.430400,0.430200,0.430200,0.430300,0.430300,0.430300,0.430400,0.430600,0.430800,0.429700,1.000000,0.152200,1.000000,1.000000,1.000000,1.000000,1.000000,1.000000,1.000000,1.000000,0.456500,0.456500,1.000000,1.000000,1.000000,1.000000,1.000000,1.000000,1.000000,1.000000,1.000000,0.429200,0.428200,0.429200,0.429200,0.429400,0.429600,0.429800,0.430200,0.430300,0.430300,1.000000,1.000000,1.000000,1.000000,1.000000,1.000000,1.000000,1.000000,1.000000,1.000000,1.000000,1.000000,1.000000,1.000000,1.000000,1.000000,1.000000,1.000000,1.000000,1.000000,1.000000,1.000000,1.000000,0.427100,0.427000,0.426900,0.426900,0.426900,0.427000,0.426900,0.426200,0.426200,0.426200,1.000000,1.000000,1.000000,1.000000,1.000000,1.000000,1.000000,1.000000,0.442900,0.442500,1.000000,1.000000,1.000000,1.000000,1.000000,1.000000,1.000000,1.000000,1.000000,1.000000,1.000000,1.000000,0.428000,1.000000,1.000000,1.000000,1.000000,1.000000,0.428300,0.428300,0.429500,0.432700,0.434100,0.434100,0.434100,0.431500,0.431600,0.431600,0.431800,0.431600,0.431500,0.431500,0.432800,0.432800,0.432900,1.000000,1.000000,1.000000,1.000000,0.464700,1.000000,1.000000,1.000000,1.000000,1.000000,0.465300,0.465300,0.465400
1.000000,1.000000,1.000000,1.000000,1.000000,1.000000,1.000000,1.000000,0.474200,0.474100,0.474200,0.474200,0.474200,1.000000,0.475000,0.476600,0.476500,1.000000,1.000000,1.000000,1.000000,1.000000,0.477200,0.475400,0.475500,0.475500,0.475600,0.475600,0.475500,0.475400,0.475300,0.475700,0.475700,0.475700,1.000000,0.474100,1.000000,1.000000,0.473800,0.473700,0.473900,0.474000,0.474300,0.474400,0.472000,0.472800,0.472800,0.474100,0.474100,0.474000,0.473900,0.474400,0.474400,0.474400,0.474300,0.474300,0.473200,0.473200,0.473200,1.000000,0.475700,0.475700,0.473600,0.472500,0.471600,0.471600,0.471700,0.472000,0.472500,0.472600,0.472900,0.473000,0.473100,0.471900,0.471900,0.473000,0.473100,0.473500,0.473600,0.472800,0.472800,0.472800,0.472800,0.472700,0.472700,0.471600,0.471700,0.471700,0.471800,0.471900,0.472000,0.472200,0.472700,0.472700,0.472000,0.471100,0.471100,1.000000,0.431900,0.431800,0.432000,0.432400,0.432400,0.432400,1.000000,0.468900,0.469000,0.469100,0.469300,0.469500,0.469600,0.469500,0.468800,0.468800,0.468900,0.469000,0.467700,0.467600,1.000000,0.458400,0.460100,0.460100,1.000000,1.000000,0.431300,0.430500,0.430300,0.430300,0.430300,0.430300,0.430400,0.430500,0.429700,0.428900,1.000000,1.000000,1.000000,1.000000,1.000000,1.000000,1.000000,1.000000,1.000000,1.000000,1.000000,1.000000,1.000000,1.000000,1.000000,1.000000,1.000000,1.000000,1.000000,1.000000,1.000000,0.429200,0.429200,0.429200,0.429000,0.429000,0.429000,0.429000,0.430200,0.430300,0.430300,0.431100,0.431400,1.000000,1.000000,1.000000,1.000000,1.000000,1.000000,1.000000,1.000000,1.000000,1.000000,1.000000,1.000000,1.000000,1.000000,1.000000,1.000000,1.000000,1.000000,1.000000,1.000000,1.000000,0.427100,0.427000,0.427000,0.427000,0.427000,0.427200,0.427400,0.426200,0.426200,1.000000,1.000000,1.000000,1.000000,1.000000,1.000000,1.000000,1.000000,1.000000,1.000000,1.000000,1.000000,1.000000,1.000000,1.000000,1.000000,1.000000,1.000000,1.000000,1.000000,1.000000,0.429300,1.000000,0.429200,1.000000,1.000000,1.000000,1.000000,1.000000,0.426900,0.426900,0.429200,0.432700,0.434000,0.434000,0.434000,0.431400,0.431300,0.431300,0.431300,0.431500,0.431400,0.431400,0.432800,0.432700,0.431800,1.000000,1.000000,0.466000,0.466000,0.464700,0.464700,0.464700,0.466900,0.466800,0.466800,0.465300,1.000000,0.465300
1.000000,1.000000,1.000000,1.000000,0.475200,1.000000,0.475400,0.475400,0.474200,0.474200,0.474200,0.474200,0.474200,0.475300,0.475100,0.476600,0.476600,0.476600,1.000000,1.000000,1.000000,0.478100,0.477500,0.477200,0.477200,0.477100,0.477200,0.477100,0.475600,0.475500,0.475600,0.475700,0.475700,1.000000,1.000000,1.000000,1.000000,0.473700,0.473700,0.473700,0.473900,1.000000,1.000000,1.000000,0.472000,0.472400,0.472800,0.474000,0.474000,0.472400,0.472400,0.472500,0.474400,0.474400,0.474400,0.474200,0.473200,0.473200,0.473200,1.000000,0.473600,0.473700,0.473700,0.472600,0.471500,0.471500,0.471600,0.472000,0.472600,0.472600,0.472900,0.473000,0.473100,0.473000,0.473000,0.473100,0.473200,0.473500,0.473600,0.473700,0.472700,0.472600,0.472600,0.472600,0.471700,0.471700,0.471700,0.471700,0.471800,0.471800,0.472000,0.472100,0.472800,0.472900,0.471900,0.471100,0.471100,1.000000,1.000000,0.432400,0.432400,0.432400,0.432400,0.432400,1.000000,1.000000,1.000000,1.000000,1.000000,1.000000,0.469600,1.000000,1.000000,1.000000,1.000000,0.467700,0.467700,1.000000,1.000000,1.000000,1.000000,0.460100,1.000000,1.000000,0.432400,0.432000,0.430300,0.430200,0.430100,0.430100,0.429900,0.429400,0.428800,1.000000,1.000000,1.000000,1.000000,1.000000,1.000000,1.000000,1.000000,1.000000,1.000000,1.000000,1.000000,1.000000,1.000000,1.000000,1.000000,1.000000,1.000000,1.000000,1.000000,1.000000,1.000000,0.429200,0.429100,0.429000,0.429000,0.429000,0.429000,0.429000,0.430200,0.430300,0.430400,0.430500,0.431400,0.434100,1.000000,1.000000,1.000000,1.000000,1.000000,1.000000,1.000000,1.000000,1.000000,1.000000,1.000000,1.000000,1.000000,1.000000,1.000000,1.000000,1.000000,1.000000,1.000000,1.000000,0.427200,0.427200,0.427200,0.427200,0.427200,0.427400,0.427500,0.426200,0.426200,0.426200,1.000000,1.000000,1.000000,1.000000,1.000000,1.000000,1.000000,1.000000,1.000000,1.000000,1.000000,1.000000,1.000000,1.000000,1.000000,1.000000,1.000000,1.000000,1.000000,1.000000,1.000000,0.429300,0.429300,1.000000,1.000000,1.000000,1.000000,1.000000,0.426900,0.426900,0.431300,0.434000,0.434000,0.434000,0.433000,0.431200,0.431200,0.431200,0.430800,0.430600,0.430500,0.431400,0.431400,0.431500,0.431500,1.000000,1.000000,0.465900,0.466000,0.467000,1.000000,0.466900,0.466900,0.466900,0.466800,0.465300,0.465300,0.465300
1.000000,1.000000,1.000000,1.000000,1.000000,1.000000,1.000000,1.000000,1.000000,0.474300,0.475200,0.475400,0.475400,0.475700,0.478400,0.478400,0.476700,0.476700,1.000000,1.000000,1.000000,1.000000,0.478200,0.477100,0.477100,0.477200,0.477800,0.477400,0.475500,0.475500,0.475500,0.475600,0.475600,0.475700,0.474700,0.473600,0.473600,0.473600,0.473700,0.473700,0.473900,0.475500,0.475300,0.474200,0.472700,0.474100,0.474000,0.474100,0.474100,0.472400,0.472400,0.472500,1.000000,0.474400,0.474400,0.473900,0.473700,0.473300,0.473300,0.473400,0.473500,0.473700,0.473700,0.473800,0.472800,0.472800,0.473100,0.473100,0.473100,0.473000,0.473000,0.473200,0.473100,0.473000,0.473000,0.473000,0.473100,0.473500,0.473600,0.473600,0.472000,0.472000,0.471900,0.471800,0.471700,0.471700,0.471700,0.471700,0.471700,0.471800,0.471900,0.472600,0.472800,0.472900,0.471400,0.471100,0.471100,1.000000,1.000000,0.432400,0.432400,0.431200,0.431200,0.431200,1.000000,1.000000,1.000000,1.000000,1.000000,1.000000,1.000000,1.000000,1.000000,1.000000,1.000000,1.000000,0.466500,0.462400,1.000000,1.000000,1.000000,1.000000,1.000000,1.000000,0.432400,0.432400,0.430200,0.430200,0.430100,0.430000,0.429800,0.429400,0.429000,1.000000,1.000000,1.000000,1.000000,1.000000,1.000000,1.000000,1.000000,1.000000,1.000000,1.000000,1.000000,1.000000,1.000000,1.000000,1.000000,1.000000,1.000000,1.000000,1.000000,1.000000,1.000000,0.429100,0.429000,0.429000,0.428900,0.428900,0.429000,0.429800,0.430200,0.430300,0.430400,0.430400,0.430400,0.437200,1.000000,1.000000,1.000000,1.000000,1.000000,1.000000,1.000000,1.000000,1.000000,1.000000,1.000000,1.000000,1.000000,1.000000,1.000000,1.000000,1.000000,1.000000,1.000000,1.000000,0.427400,0.427400,0.427300,0.427300,0.427400,0.427500,0.427700,0.427900,0.426300,0.428200,1.000000,1.000000,1.000000,1.000000,1.000000,1.000000,1.000000,1.000000,0.467000,1.000000,1.000000,1.000000,1.000000,0.465900,1.000000,1.000000,1.000000,1.000000,1.000000,1.000000,1.000000,0.429400,0.429300,1.000000,1.000000,1.000000,1.000000,1.000000,0.428100,0.428100,0.431300,0.433800,0.433800,0.433500,0.432700,0.431100,0.431000,0.430900,0.430600,0.430600,0.430500,0.431400,0.431400,0.431400,0.431400,1.000000,1.000000,0.466000,0.467000,0.467000,0.467000,0.467000,0.467000,0.468200,0.468200,0.467800,0.465300,0.465200
1.000000,1.000000,1.000000,1.000000,1.000000,1.000000,1.000000,1.000000,1.000000,0.475900,0.475900,0.475900,0.475900,0.476000,0.478400,0.478400,0.476800,0.476800,1.000000,1.000000,1.000000,1.000000,0.478200,0.477000,0.477100,0.477500,0.478300,0.478200,0.475500,0.475400,0.475400,0.475400,0.475500,1.000000,1.000000,0.473600,0.473600,0.473600,0.473700,0.473700,0.476700,0.476800,0.476800,0.475500,0.474100,0.474100,0.474100,0.474100,0.474200,0.474200,0.472400,0.474400,1.000000,1.000000,0.474300,0.473800,0.473700,0.473500,0.473500,0.473500,0.473600,0.473700,0.473800,0.473800,0.473600,0.473200,0.473100,0.473100,0.473200,0.473200,0.473300,0.473200,0.473200,0.473000,0.472900,0.472900,0.472800,0.472900,0.473200,0.473100,0.472000,0.472000,0.471900,0.471800,0.471800,0.471700,0.471700,0.471700,0.471700,0.471800,0.472800,0.472800,0.472800,0.472900,0.471400,0.471200,0.471200,1.000000,1.000000,0.431600,0.431500,0.431200,0.431200,0.431200,1.000000,1.000000,1.000000,1.000000,1.000000,1.000000,0.445100,1.000000,1.000000,1.000000,1.000000,0.462400,0.462400,0.455900,1.000000,1.000000,1.000000,1.000000,1.000000,1.000000,0.432500,0.432400,0.430200,0.430100,0.430000,0.429900,0.429800,0.429800,0.429200,0.428900,1.000000,1.000000,0.152300,1.000000,1.000000,1.000000,1.000000,1.000000,1.000000,1.000000,1.000000,1.000000,1.000000,1.000000,1.000000,1.000000,1.000000,1.000000,1.000000,1.000000,1.000000,0.429100,0.429000,0.429000,0.428900,0.428900,0.429000,0.429000,0.430200,0.430300,0.430300,0.430200,0.430200,1.000000,1.000000,1.000000,1.000000,1.000000,1.000000,1.000000,1.000000,1.000000,1.000000,1.000000,1.000000,1.000000,1.000000,1.000000,1.000000,1.000000,1.000000,1.000000,1.000000,1.000000,0.427500,0.427400,0.427400,0.427400,0.427400,0.427500,0.427700,0.427900,0.428100,0.428200,1.000000,1.000000,1.000000,1.000000,1.000000,1.000000,1.000000,1.000000,0.467400,1.000000,1.000000,1.000000,0.466900,0.465900,1.000000,1.000000,1.000000,1.000000,1.000000,1.000000,0.429500,0.429400,0.428900,0.428600,1.000000,1.000000,1.000000,1.000000,0.430100,0.430100,0.431300,0.433500,0.433500,0.433200,0.432900,0.431100,0.430900,0.430800,0.430600,0.430500,0.430500,0.431400,0.431400,0.431400,0.431400,1.000000,1.000000,0.466400,0.467000,0.467000,0.467000,0.467000,0.468200,0.468200,0.468200,0.468100,0.465200,0.465200
0.475000,1.000000,1.000000,1.000000,1.000000,0.475200,0.475200,0.475300,0.475600,0.475900,0.476000,1.000000,0.476000,0.476100,0.478100,0.477900,0.477600,0.477500,1.000000,1.000000,1.000000,1.000000,1.000000,0.476900,0.476900,0.477000,0.478400,0.478400,0.475400,0.475300,0.475200,0.475200,0.475200,0.475500,1.000000,0.474500,0.473600,0.475600,0.476500,0.476500,0.476600,0.476700,0.476600,0.476600,0.474100,0.474100,0.474100,0.474200,0.474200,0.474200,0.474400,0.474400,0.474400,0.474200,0.473900,0.473700,0.473700,0.473600,0.473500,0.473600,0.473600,0.473800,0.473800,0.473900,0.473900,0.474000,0.473200,0.473200,0.473300,0.473400,0.473400,0.473400,0.473200,0.472800,0.472800,0.472700,0.472700,0.472900,0.473000,0.473200,0.471900,0.471900,0.471900,0.471800,0.471800,0.471800,0.471800,0.471800,0.473000,0.472900,0.472900,0.472900,0.472900,0.471700,0.471600,0.471500,0.471500,1.000000,1.000000,0.431700,0.431500,0.431300,0.431200,0.431200,1.000000,1.000000,1.000000,1.000000,1.000000,1.000000,0.445100,0.455600,0.455600,0.456800,0.457100,0.457900,1.000000,0.456000,0.455900,0.455400,1.000000,1.000000,1.000000,1.000000,0.432400,0.432400,0.431300,0.430100,0.430000,0.430000,0.429900,0.429900,0.430000,0.430000,1.000000,1.000000,1.000000,1.000000,1.000000,1.000000,1.000000,1.000000,1.000000,1.000000,1.000000,1.000000,1.000000,1.000000,0.467100,0.465000,1.000000,1.000000,1.000000,1.000000,1.000000,0.430100,0.429100,0.429000,0.429000,0.429000,0.429000,0.429100,0.429400,0.429600,0.430000,0.430000,0.430000,1.000000,1.000000,1.000000,1.000000,1.000000,1.000000,1.000000,1.000000,1.000000,1.000000,1.000000,1.000000,1.000000,1.000000,1.000000,1.000000,1.000000,1.000000,1.000000,1.000000,1.000000,0.427500,0.427500,0.427400,0.427400,0.427400,0.427400,0.427500,0.428000,0.428100,1.000000,1.000000,1.000000,1.000000,1.000000,1.000000,1.000000,0.467400,0.467500,0.467700,0.467700,1.000000,1.000000,0.468700,0.466000,0.466000,1.000000,0.466100,0.466300,1.000000,1.000000,0.429500,0.429500,0.428500,0.428500,1.000000,1.000000,1.000000,1.000000,0.431100,0.431100,0.431500,0.433300,0.433300,0.433200,0.433100,0.431400,0.431000,0.430800,0.430600,0.430500,0.431800,0.432500,0.432300,0.431600,0.432600,1.000000,1.000000,0.466700,0.466900,0.468600,0.468400,0.467800,0.468300,0.468200,0.468200,0.467200,0.465200,0.465200
1.000000,1.000000,1.000000,1.000000,1.000000,0.475400,0.475400,0.475500,1.000000,0.475900,0.476000,0.476100,0.476100,0.477200,0.477800,0.477800,0.477600,0.477500,0.477500,1.000000,1.000000,1.000000,0.476500,0.476600,0.476600,0.476700,0.476800,0.475300,0.475200,0.475200,0.475100,0.475100,1.000000,1.000000,0.477500,0.477500,0.476400,0.476400,0.476400,0.476500,0.476600,0.476600,0.476600,0.476500,0.476200,0.474100,0.474100,0.474100,0.474200,0.474300,0.474400,0.474400,0.475700,0.474200,0.473900,0.473700,0.473700,0.473600,0.473600,0.473700,0.473800,0.474000,0.474000,0.474100,0.474200,0.474600,0.474600,0.473400,0.473500,0.473600,0.473700,0.473700,0.473300,0.472700,0.472700,0.472700,0.472700,0.472900,0.473000,0.473200,0.473200,0.471900,0.471900,0.471900,0.472200,0.471800,0.471900,0.471900,0.473100,0.472900,0.472900,0.472900,0.471800,0.471800,0.471700,0.471700,0.471600,0.471600,1.000000,0.431800,0.431700,0.432000,0.432100,0.432200,1.000000,1.000000,1.000000,1.000000,0.443400,1.000000,0.456600,0.456700,0.456800,1.000000,0.457800,1.000000,0.460800,0.460800,0.460800,0.456400,1.000000,1.000000,1.000000,1.000000,0.432400,0.431400,0.431400,0.431400,0.430100,0.430100,0.430100,0.430100,0.430100,0.430100,1.000000,1.000000,1.000000,1.000000,1.000000,1.000000,0.457500,0.457600,0.457700,1.000000,0.467800,0.467700,1.000000,0.467100,0.467100,0.467100,1.000000,1.000000,0.468300,0.468600,1.000000,0.430200,0.429500,0.429300,0.429000,0.429000,0.429100,0.429200,0.429400,0.429500,0.429800,0.429800,0.429800,1.000000,1.000000,1.000000,1.000000,1.000000,1.000000,1.000000,1.000000,1.000000,1.000000,1.000000,1.000000,1.000000,1.000000,1.000000,1.000000,1.000000,1.000000,1.000000,1.000000,1.000000,0.427700,0.427500,0.427400,0.427400,0.427400,0.427400,0.427500,0.427500,0.428200,1.000000,1.000000,1.000000,1.000000,0.469700,0.469700,0.469600,0.469100,0.468900,0.467700,0.467700,0.467700,0.468500,0.466700,0.466200,0.466000,1.000000,1.000000,0.463800,1.000000,1.000000,1.000000,0.429100,0.428400,0.428400,1.000000,0.391600,0.391600,0.430200,0.431000,0.431000,0.431200,0.432500,0.433000,0.433000,0.433100,0.431500,0.431500,0.431500,0.431600,0.432800,0.432800,0.432700,0.432600,0.432500,0.433000,1.000000,1.000000,0.466600,0.468600,0.468600,0.468600,0.468400,0.468300,0.468200,0.467100,0.467100,0.467200,0.467200
0.475000,0.475000,1.000000,1.000000,1.000000,0.476000,1.000000,1.000000,1.000000,0.476100,1.000000,0.476200,0.476200,0.477900,0.477800,0.477800,0.477600,0.477600,0.477500,1.000000,1.000000,0.476400,0.476400,0.476500,0.476600,0.476600,0.476700,0.475200,0.475200,0.475100,0.475000,1.000000,1.000000,1.000000,1.000000,0.477500,0.477500,0.476400,0.476400,0.475000,0.474900,0.474900,0.476300,0.476300,0.476200,0.474200,0.474100,0.474100,0.474200,0.474300,0.474400,0.475600,0.475600,0.474300,0.474000,0.473700,0.473700,0.473600,0.473700,0.473700,0.474000,0.474100,0.474100,0.474200,0.474600,0.474600,0.474600,0.474400,0.474200,0.474000,0.474000,0.473900,0.473900,0.472700,0.472700,0.472700,0.472700,0.472900,0.473100,0.473300,0.473400,0.473400,0.473300,0.473200,0.473100,0.472200,0.472200,0.472100,0.473400,0.473400,0.473000,0.472900,0.472200,0.472000,0.471900,0.471900,0.471800,0.471800,1.000000,0.432200,0.432200,0.432200,0.432200,0.432200,1.000000,1.000000,0.443500,0.443400,0.463400,0.459400,0.458600,0.458500,0.456800,0.456800,0.464200,0.464100,0.464000,0.464000,0.464000,1.000000,1.000000,1.000000,1.000000,1.000000,0.432400,0.431500,0.431400,0.431400,0.431400,0.430200,0.430200,0.430200,0.430200,0.430200,0.430200,1.000000,1.000000,1.000000,1.000000,0.461100,0.464700,1.000000,1.000000,1.000000,0.470500,0.467900,0.467200,0.467100,0.467100,0.467100,1.000000,0.468100,1.000000,1.000000,1.000000,1.000000,0.430000,0.429900,0.429800,0.429600,0.429400,0.429400,0.429500,0.429600,0.429800,0.429800,0.429800,1.000000,1.000000,1.000000,1.000000,1.000000,1.000000,1.000000,1.000000,1.000000,1.000000,1.000000,1.000000,1.000000,1.000000,1.000000,1.000000,1.000000,1.000000,1.000000,0.429200,0.429000,0.428800,0.427900,0.427400,0.427400,0.427400,0.427400,0.427500,0.427500,0.427600,0.427700,1.000000,1.000000,0.469800,0.469700,0.469700,0.469600,0.468800,0.468800,0.467700,0.467600,0.467400,0.466800,0.466500,0.466300,0.468200,1.000000,1.000000,0.465100,1.000000,1.000000,1.000000,0.428800,0.428400,0.428400,1.000000,1.000000,1.000000,1.000000,1.000000,0.430200,0.431200,0.432500,0.432800,0.433000,0.433100,0.433100,0.433100,0.433000,0.432900,0.432900,0.432900,0.432900,0.433000,0.433100,0.434500,1.000000,1.000000,0.466600,0.467200,0.468700,0.468700,0.466700,0.466700,0.466800,0.466800,0.467000,0.467200,0.467200
0.475000,0.475000,1.000000,1.000000,1.000000,0.476000,0.476000,0.476000,0.475900,0.476000,1.000000,0.476200,0.476200,0.477900,0.477800,0.477800,0.477600,0.476100,0.476100,1.000000,1.000000,0.476400,0.476400,0.476400,0.476500,0.476500,0.475000,0.475000,0.475000,0.475100,0.475000,1.000000,1.000000,1.000000,1.000000,1.000000,1.000000,0.476400,0.476400,0.475000,0.474900,0.474900,0.474900,0.476200,0.474600,0.474500,1.000000,0.474200,0.474200,0.474300,0.475200,0.475500,0.475600,0.475500,0.474400,0.473800,0.473700,0.473700,0.474700,0.474700,0.474400,0.474300,0.474400,0.474600,0.474600,0.474500,0.474500,0.474400,0.474300,0.474100,0.474100,0.474000,0.474000,0.472700,0.472700,0.472700,0.472700,0.472900,0.473000,0.473300,0.473400,0.473300,0.473300,0.473200,0.473200,0.472200,0.472200,0.472200,0.473500,0.474100,0.474300,0.474200,0.472900,0.472000,0.472000,0.472000,0.471900,0.471900,1.000000,0.432200,0.432200,0.432100,0.432100,0.432200,1.000000,1.000000,1.000000,0.465700,0.465500,0.465400,0.465200,0.465200,0.465100,1.000000,1.000000,0.464200,0.464100,0.464400,0.466000,0.466400,1.000000,1.000000,1.000000,1.000000,1.000000,0.432000,0.431600,0.431600,0.431600,0.431500,0.431500,0.430400,0.430400,1.000000,1.000000,1.000000,1.000000,1.000000,1.000000,0.467400,0.467400,0.470600,0.470600,1.000000,0.470500,0.470500,0.467900,0.467100,0.467200,1.000000,1.000000,1.000000,0.468900,0.468900,1.000000,1.000000,0.430000,0.430000,0.429800,0.429800,0.429600,0.429600,0.429600,0.429800,0.429900,0.429900,0.429900,1.000000,1.000000,0.471400,1.000000,1.000000,1.000000,1.000000,1.000000,1.000000,1.000000,1.000000,1.000000,1.000000,1.000000,1.000000,1.000000,1.000000,1.000000,0.433600,0.432000,0.430700,0.429000,0.428900,0.428900,0.428900,0.429000,0.428900,0.428900,0.427600,0.427600,1.000000,1.000000,0.469000,1.000000,1.000000,0.468700,0.468700,0.468700,0.468700,0.467300,0.467200,0.466800,0.466600,0.466500,0.466400,1.000000,0.470200,1.000000,1.000000,1.000000,1.000000,1.000000,0.428800,0.428500,0.428400,1.000000,1.000000,0.391600,1.000000,1.000000,0.430200,0.430200,0.432200,0.432700,0.433000,0.433100,0.433100,0.433100,0.433000,0.433000,0.432900,0.432800,0.432800,0.433100,0.434500,0.434600,0.434600,1.000000,0.466700,0.467000,0.468700,0.468600,0.466700,0.466700,0.466700,0.466800,0.466900,0.467100,0.467400
1.000000,1.000000,1.000000,1.000000,1.000000,0.476000,0.476000,0.475900,1.000000,0.475800,0.476900,0.478000,0.478000,0.479300,0.479200,0.479200,0.477800,0.477800,1.000000,1.000000,1.000000,1.000000,0.476400,0.476400,0.476400,0.476400,1.000000,0.475000,0.475000,0.476800,0.476900,0.475500,0.475000,0.475100,0.475200,0.477300,0.477400,0.477400,0.476200,0.475000,0.474900,0.474900,0.474800,0.474800,0.474600,0.474600,0.474600,0.475000,0.475000,0.475100,0.475300,0.475300,0.475400,0.475300,0.475300,0.474300,0.473800,0.473700,0.475000,0.474800,0.474400,0.474400,0.474400,0.474500,0.474500,0.474500,0.474500,0.474400,0.474400,0.474200,0.474200,0.474100,0.472700,0.472700,0.472700,0.472700,0.472700,0.472700,0.472600,0.472600,0.473000,0.473300,0.473300,0.473200,0.473200,0.472300,0.472300,0.472300,0.473300,0.474300,0.474300,0.474200,0.474100,0.474100,0.473400,0.473600,0.473900,0.472300,1.000000,0.432200,0.432200,0.432100,0.432100,0.432000,1.000000,0.471400,0.470300,0.468200,0.470300,0.467100,0.467100,0.469600,0.471600,0.471500,0.470600,0.467700,0.467800,0.466000,0.466000,0.466300,1.000000,1.000000,1.000000,1.000000,1.000000,0.432000,0.431800,0.431700,0.431600,0.431600,0.431500,0.430900,0.430500,0.430400,0.430400,1.000000,1.000000,1.000000,1.000000,0.469200,0.470600,1.000000,1.000000,1.000000,0.470500,0.470500,0.470400,0.470500,0.470700,1.000000,1.000000,1.000000,0.470800,0.469300,1.000000,1.000000,0.430200,0.430100,0.430000,0.430000,0.429900,0.429900,0.430100,0.430100,0.430100,0.430100,0.430100,1.000000,0.471600,1.000000,0.471300,0.471000,0.471300,1.000000,1.000000,1.000000,1.000000,1.000000,1.000000,0.438900,0.438800,0.436200,0.436200,0.437300,0.437300,0.435800,0.433600,0.432000,0.430000,0.428900,0.428900,0.428900,0.428900,0.428900,0.428900,0.427700,0.427700,0.427800,1.000000,1.000000,1.000000,1.000000,0.468700,0.468700,0.468700,0.468800,0.468800,0.467000,0.466800,0.466800,0.466600,0.469900,0.470300,0.470300,0.470200,1.000000,1.000000,1.000000,1.000000,0.428800,0.428600,0.428600,1.000000,1.000000,1.000000,1.000000,1.000000,0.430200,0.431600,0.431600,0.432800,0.433000,0.433100,0.433100,0.433100,0.433100,0.433000,0.432900,0.432100,0.431800,0.431800,0.431800,0.434600,0.434600,1.000000,0.466700,0.466800,0.468600,0.468500,0.468400,0.466700,0.466700,0.466700,0.466800,0.467100,0.467500
