1.000000,1.000000,1.000000,1.000000,1.000000,1.000000,1.000000,1.000000,1.000000,1.000000,1.000000,1.000000,1.000000,1.000000,1.000000,1.000000,1.000000,1.000000,1.000000,1.000000,1.000000,1.000000,1.000000,1.000000,1.000000,1.000000,1.000000,1.000000,1.000000,1.000000,0.278800,0.278900,1.000000,1.000000,1.000000,1.000000,1.000000,1.000000,1.000000,1.000000,1.000000,1.000000,1.000000,1.000000,0.295600,1.000000,0.295500,1.000000,1.000000,1.000000,1.000000,1.000000,1.000000,1.000000,0.294800,0.293300,1.000000,0.294500,0.294600,0.294800,0.294900,1.000000,0.292600,0.292600,0.295000,0.294500,0.294400,0.295400,1.000000,1.000000,1.000000,1.000000,1.000000,1.000000,1.000000,1.000000,1.000000,1.000000,0.297000,0.295900,1.000000,1.000000,1.000000,1.000000,1.000000,1.000000,1.000000,1.000000,1.000000,1.000000,0.293900,1.000000,0.291300,0.291200,1.000000,1.000000,1.000000,1.000000,1.000000,0.207600,0.207600,0.207500,0.207500,0.207400,0.207300,0.207100,0.207000,0.207000,0.206800,0.206700,0.206300,0.206100,0.205800,0.205700,0.205500,0.205400,0.205400,0.205300,0.205200,0.205100,0.205000,0.204800,0.204700,0.204600,0.204500,0.204400,0.204300,0.204200,0.204000,0.203900,0.203800,0.203700,0.203700,0.203700,1.000000,0.152800,0.152400,0.152400,0.152400,0.152400,0.202500,0.202300,0.202200,0.202200,0.202200,0.202100,0.202000,0.201700,0.201600,0.201500,0.201400,0.201400,0.201300,0.201400,0.201300,0.201200,0.201100,0.200600,0.200500,0.200500,0.200500,0.200500,0.200500,1.000000,1.000000,1.000000,0.199000,0.199000,0.199600,0.199400,0.199300,0.199100,0.198700,0.198500,0.198400,0.198300,0.198100,0.198000,0.197900,0.197900,0.197800,0.197800,0.197700,0.197600,0.197600,0.197600,0.197600,0.197500,0.197400,0.197100,0.196400,0.196300,0.196000,0.196000,0.195900,0.195800,0.195800,0.195800,0.195800,0.195700,0.195600,0.195400,0.195200,0.195100,0.195000,0.194800,0.194700,0.194500,0.194400,0.194400,0.194400,0.194500,0.194400,0.193900,0.193800,0.193800,0.193800,0.193700,0.193600,0.193500,0.193400,0.193100,0.193100,0.192900,0.192800,0.192700,0.192600,0.192500,0.192500,0.192500,0.192500,0.192400,0.192400,1.000000,1.000000,1.000000,1.000000,1.000000,1.000000,1.000000,1.000000,1.000000,1.000000,1.000000,0.262400,0.262600,1.000000,1.000000,1.000000,1.000000,1.000000,1.000000,1.000000,1.000000,1.000000,1.000000
1.000000,1.000000,1.000000,1.000000,1.000000,1.000000,1.000000,1.000000,1.000000,1.000000,1.000000,1.000000,1.000000,1.000000,1.000000,1.000000,1.000000,1.000000,1.000000,1.000000,1.000000,1.000000,1.000000,1.000000,1.000000,1.000000,1.000000,1.000000,1.000000,0.278600,0.278700,0.278800,0.278900,1.000000,1.000000,1.000000,1.000000,1.000000,1.000000,1.000000,1.000000,1.000000,1.000000,1.000000,1.000000,0.295600,1.000000,1.000000,1.000000,1.000000,1.000000,1.000000,1.000000,1.000000,1.000000,1.000000,1.000000,1.000000,1.000000,1.000000,1.000000,1.000000,0.287900,0.287900,1.000000,1.000000,1.000000,1.000000,1.000000,1.000000,1.000000,1.000000,1.000000,1.000000,1.000000,1.000000,1.000000,1.000000,1.000000,1.000000,1.000000,1.000000,1.000000,1.000000,1.000000,1.000000,1.000000,1.000000,1.000000,1.000000,0.291300,0.291300,1.000000,0.291000,1.000000,1.000000,1.000000,1.000000,1.000000,0.207600,0.207500,0.207500,0.207400,0.207300,0.207200,0.207100,0.207000,0.206900,0.206800,0.206700,0.206400,0.206200,0.205900,0.205800,0.205600,0.205600,0.205400,0.205400,0.205300,0.205100,0.205000,0.204800,0.204700,0.204600,0.204500,0.204400,0.204300,0.204200,0.204000,0.203900,0.203800,0.203800,0.203800,0.203800,1.000000,1.000000,0.152400,0.152400,1.000000,0.203000,0.202900,0.202400,0.202300,0.202200,0.202200,0.202200,0.202000,0.201600,0.201600,0.201500,0.201500,0.201400,0.201400,0.201400,0.201400,0.201400,0.201400,0.200600,0.200600,0.200500,0.200600,0.200600,0.200600,0.200500,1.000000,1.000000,1.000000,0.199800,0.199700,0.199500,0.199400,0.199300,0.198900,0.198700,0.198600,0.198600,0.198200,0.198100,0.198000,0.197900,0.197800,0.197800,0.197800,0.197700,0.197700,0.197600,0.197600,0.197600,0.197400,0.197200,0.196500,0.196400,0.196200,0.196100,0.196000,0.195900,0.195900,0.195900,0.195800,0.195800,0.195600,0.195500,0.195300,0.195200,0.195100,0.194800,0.194700,0.194500,0.194500,0.194500,0.194500,0.194600,0.194700,0.193900,0.193900,0.193800,0.193800,0.193800,0.193600,0.193500,0.193400,0.193200,0.193100,0.192900,0.192800,0.192700,0.192600,0.192600,0.192500,0.192500,0.192500,0.192500,0.192400,1.000000,1.000000,1.000000,1.000000,1.000000,1.000000,1.000000,1.000000,1.000000,0.258100,1.000000,0.262200,1.000000,0.262800,1.000000,1.000000,1.000000,1.000000,1.000000,1.000000,1.000000,1.000000,0.261600
1.000000,1.000000,1.000000,1.000000,1.000000,1.000000,1.000000,1.000000,1.000000,1.000000,1.000000,1.000000,1.000000,1.000000,1.000000,1.000000,1.000000,1.000000,1.000000,1.000000,1.000000,1.000000,1.000000,1.000000,1.000000,1.000000,1.000000,1.000000,1.000000,0.278500,0.278700,0.278800,0.278900,0.278900,0.276900,1.000000,1.000000,1.000000,1.000000,1.000000,1.000000,1.000000,1.000000,1.000000,1.000000,1.000000,1.000000,1.000000,1.000000,1.000000,1.000000,1.000000,1.000000,0.493400,0.493400,1.000000,1.000000,1.000000,1.000000,1.000000,1.000000,1.000000,0.286400,1.000000,1.000000,1.000000,1.000000,1.000000,1.000000,1.000000,1.000000,1.000000,1.000000,1.000000,1.000000,1.000000,1.000000,1.000000,1.000000,1.000000,1.000000,1.000000,1.000000,1.000000,1.000000,1.000000,1.000000,1.000000,1.000000,1.000000,1.000000,1.000000,1.000000,1.000000,1.000000,1.000000,1.000000,1.000000,1.000000,0.207600,0.207500,0.207500,0.207400,0.207200,0.207100,0.207000,0.207000,0.206900,0.206800,0.206700,0.206600,0.206400,0.205900,0.205800,0.205700,0.205700,0.205600,0.205600,0.205400,0.205200,0.205000,0.204800,0.204700,0.204600,0.204500,0.204500,0.204300,0.204300,0.204100,0.204000,0.203900,0.203900,0.203900,0.204000,1.000000,1.000000,0.154600,1.000000,1.000000,0.203200,0.203100,0.202800,0.202600,0.202300,0.202200,0.202200,0.201900,0.201600,0.201600,0.201500,0.201500,0.201500,0.201500,0.201500,0.201500,0.201500,0.201500,0.201000,0.200600,0.200600,0.200600,0.200600,0.200600,0.200600,0.200400,1.000000,1.000000,0.199900,0.199800,0.199600,0.199400,0.199300,0.199000,0.199000,0.198900,0.198900,0.198400,0.198200,0.198100,0.198000,0.197900,0.197900,0.197800,0.197800,0.197800,0.197700,0.197600,0.197600,0.197500,0.197300,0.196700,0.196600,0.196400,0.196300,0.196200,0.196100,0.196100,0.196000,0.196000,0.195900,0.195700,0.195600,0.195500,0.195500,0.195500,0.194800,0.194700,0.194600,0.194500,0.194600,0.194600,0.194700,0.194700,0.194700,0.194100,0.194000,0.193800,0.193800,0.193700,0.193600,0.193400,0.193200,0.193100,0.192900,0.192800,0.192800,0.192600,0.192600,0.192500,0.192500,0.192500,0.192500,0.192500,1.000000,1.000000,1.000000,1.000000,1.000000,1.000000,1.000000,1.000000,1.000000,0.254200,0.260600,0.261000,1.000000,1.000000,1.000000,1.000000,1.000000,1.000000,1.000000,1.000000,1.000000,1.000000,1.000000
1.000000,1.000000,1.000000,1.000000,1.000000,1.000000,1.000000,1.000000,1.000000,1.000000,1.000000,1.000000,1.000000,1.000000,1.000000,1.000000,1.000000,1.000000,1.000000,1.000000,1.000000,1.000000,1.000000,1.000000,1.000000,1.000000,0.274800,0.274900,0.275000,0.276400,0.276400,0.275500,0.275300,0.275200,0.275200,1.000000,1.000000,1.000000,1.000000,1.000000,1.000000,1.000000,1.000000,1.000000,1.000000,1.000000,1.000000,1.000000,1.000000,1.000000,1.000000,1.000000,1.000000,1.000000,0.493400,1.000000,1.000000,1.000000,1.000000,1.000000,1.000000,1.000000,0.281700,1.000000,0.278400,0.278400,0.284100,1.000000,1.000000,0.274200,0.274200,1.000000,1.000000,1.000000,1.000000,1.000000,1.000000,1.000000,1.000000,1.000000,1.000000,1.000000,1.000000,1.000000,1.000000,1.000000,1.000000,1.000000,1.000000,1.000000,1.000000,1.000000,1.000000,1.000000,1.000000,1.000000,1.000000,1.000000,1.000000,0.207700,0.207600,0.207500,0.207400,0.207200,0.207100,0.207000,0.206900,0.206900,0.206800,0.206800,0.206700,0.206600,0.206200,0.206100,0.206000,0.205900,0.205700,0.205600,0.205500,0.205200,0.205100,0.204800,0.204700,0.204600,0.204500,0.204500,0.204400,0.204300,0.204200,0.204100,0.204000,0.204000,0.204000,0.204200,0.204200,1.000000,1.000000,0.203400,0.203300,0.203200,0.203100,0.202800,0.202700,0.202400,0.202200,0.202200,0.201900,0.201800,0.201600,0.201500,0.201500,0.201500,0.201600,0.201600,0.201600,0.201600,0.201500,0.201400,0.200800,0.200700,0.200700,0.200700,0.200700,0.200600,0.200400,0.200200,0.200100,0.200000,1.000000,0.199600,0.199400,0.199300,0.199200,0.199100,0.199100,0.199000,0.198900,0.198700,0.198400,0.198200,0.198000,0.198000,0.197900,0.197900,0.197800,0.197800,0.197700,0.197700,0.197600,0.197400,0.196800,0.196600,0.196500,0.196400,0.196300,0.196200,0.196200,0.196100,0.196100,0.196000,0.195700,0.195600,0.195500,0.195500,0.195600,0.195400,0.194700,0.194600,0.194600,0.194600,0.194600,0.194700,0.194800,0.194600,0.194300,0.194000,0.193900,0.193800,0.193700,0.193600,0.193500,0.193200,0.193100,0.193100,0.193000,0.192900,0.192800,0.192700,0.192600,0.192600,0.192600,0.192600,1.000000,1.000000,0.251000,0.250900,0.250900,1.000000,1.000000,1.000000,1.000000,1.000000,1.000000,1.000000,1.000000,0.251600,0.251600,0.251600,1.000000,1.000000,1.000000,1.000000,1.000000,1.000000,1.000000,1.000000
1.000000,1.000000,1.000000,1.000000,1.000000,1.000000,1.000000,1.000000,1.000000,1.000000,1.000000,1.000000,1.000000,1.000000,1.000000,1.000000,0.274800,0.270800,0.270800,0.271000,0.271400,0.271600,0.272200,0.273400,0.273400,0.273500,0.273500,0.273500,0.273800,0.274900,0.274800,0.274700,0.274800,0.274800,0.274800,0.274900,1.000000,1.000000,1.000000,1.000000,1.000000,1.000000,1.000000,1.000000,1.000000,1.000000,1.000000,1.000000,1.000000,1.000000,1.000000,1.000000,1.000000,1.000000,0.492600,0.492600,1.000000,1.000000,1.000000,1.000000,1.000000,1.000000,1.000000,1.000000,1.000000,1.000000,1.000000,1.000000,1.000000,0.271700,0.271700,0.273200,1.000000,1.000000,1.000000,1.000000,1.000000,1.000000,1.000000,1.000000,1.000000,1.000000,1.000000,1.000000,1.000000,1.000000,1.000000,1.000000,1.000000,1.000000,0.271100,0.271100,0.271100,1.000000,1.000000,1.000000,1.000000,1.000000,1.000000,0.207700,0.207700,0.207600,0.207400,0.207200,0.207100,0.207000,0.207000,0.206900,0.206900,0.206800,0.206800,0.206700,0.206400,0.206200,0.206100,0.206100,0.206000,0.205800,0.205600,0.205200,0.205100,0.205000,0.204900,0.204800,0.204600,0.204600,0.204500,0.204500,0.204400,0.204400,0.204400,0.204300,1.000000,1.000000,1.000000,1.000000,1.000000,0.203500,0.203400,0.203200,0.203100,0.202800,0.202700,0.202500,0.202300,0.202200,0.201900,0.201800,0.201600,0.201600,0.201600,0.201600,0.201600,0.201600,0.201600,0.201500,0.201400,0.201200,0.200900,0.200800,0.200800,0.200800,0.200700,0.200600,0.200300,0.200200,0.200100,0.200000,1.000000,0.199500,0.199400,0.199300,0.199200,0.199200,0.199100,0.199100,0.198900,0.198800,0.198600,0.198300,0.198200,0.198000,0.198000,0.197900,0.197800,0.197800,0.197800,0.197800,0.197700,0.197600,0.197000,0.196800,0.196600,0.196600,0.196500,0.196400,0.196400,0.196300,0.196200,0.196100,0.195600,0.195600,0.195500,0.195600,0.195700,0.195700,0.195700,0.194700,0.194700,0.194700,0.194700,0.194800,0.194700,0.194600,0.194400,0.194100,0.194000,0.193900,0.193800,0.193700,0.193600,0.193400,0.193300,0.193100,0.193100,0.193000,0.192800,0.192800,0.192700,0.192700,0.192600,0.192600,0.192600,1.000000,0.250900,0.250900,0.250900,1.000000,1.000000,1.000000,1.000000,1.000000,1.000000,1.000000,1.000000,0.247400,0.247400,0.249200,1.000000,1.000000,1.000000,1.000000,1.000000,1.000000,1.000000,1.000000
1.000000,1.000000,1.000000,1.000000,1.000000,1.000000,1.000000,1.000000,1.000000,1.000000,0.267100,0.267200,0.268400,0.268500,0.270000,0.270100,0.269500,0.269500,0.269600,0.269600,0.269900,0.270200,0.270400,0.270500,0.272000,0.272200,0.272200,0.272200,0.272300,0.273400,0.273400,0.273500,0.274700,0.274800,0.274800,0.274900,0.274900,1.000000,1.000000,1.000000,1.000000,1.000000,1.000000,1.000000,1.000000,1.000000,1.000000,1.000000,1.000000,1.000000,1.000000,1.000000,1.000000,1.000000,1.000000,1.000000,1.000000,1.000000,1.000000,1.000000,1.000000,1.000000,1.000000,1.000000,1.000000,1.000000,1.000000,1.000000,1.000000,0.268900,0.268900,0.270600,1.000000,1.000000,1.000000,1.000000,1.000000,1.000000,1.000000,0.268200,1.000000,1.000000,1.000000,1.000000,1.000000,1.000000,1.000000,1.000000,1.000000,1.000000,0.268500,0.268300,0.267900,0.267700,1.000000,1.000000,1.000000,1.000000,1.000000,0.207900,0.207800,0.207800,0.207700,0.207400,0.207200,0.207100,0.207100,0.207100,0.207000,0.207000,0.206800,0.206800,0.206600,0.206400,0.206300,0.206100,0.206000,0.205800,0.205700,0.205300,0.205200,0.205100,0.205000,0.204900,0.204700,0.204600,0.204600,0.204600,0.204500,0.204500,0.204500,0.204500,1.000000,1.000000,1.000000,1.000000,1.000000,0.203500,0.203400,0.203200,0.203000,0.202800,0.202700,0.202500,0.202400,0.202200,0.202000,0.201800,0.201700,0.201600,0.201700,0.201700,0.201700,0.201700,0.201600,0.201500,0.201400,0.201200,0.201100,0.200900,0.200900,0.200900,0.200800,0.200600,0.200200,0.200100,0.200000,0.199800,0.199400,1.000000,0.199400,1.000000,0.199300,0.199200,0.199100,0.199100,0.198900,0.198800,0.198700,0.198400,0.198300,0.198100,0.198000,0.197900,0.197900,0.197800,0.197800,0.197800,0.197700,0.197600,0.197100,0.196900,0.196700,0.196600,0.196600,0.196500,0.196400,0.196300,0.196200,0.196200,0.195600,0.195600,0.195500,0.195600,0.195700,0.195800,0.195800,0.194900,0.194800,0.194800,0.194800,0.194800,0.194700,0.194600,0.194500,0.194200,0.194000,0.193900,0.193800,0.193700,0.193600,0.193500,0.193400,0.193300,0.193300,0.193200,0.193000,0.192900,0.192800,0.192700,0.192700,0.192700,0.192700,1.000000,0.250800,1.000000,1.000000,1.000000,1.000000,1.000000,1.000000,1.000000,1.000000,1.000000,1.000000,1.000000,1.000000,0.249600,1.000000,1.000000,1.000000,1.000000,1.000000,1.000000,0.245100,0.243700
1.000000,1.000000,1.000000,1.000000,1.000000,1.000000,1.000000,1.000000,0.267000,0.267000,0.267100,0.267100,0.268300,0.268500,0.269200,0.269400,0.269500,0.269500,0.269500,0.269600,0.269800,0.270200,0.270400,0.270500,0.270600,0.272200,0.272200,0.272200,0.272300,0.272400,0.273400,0.273400,0.274000,0.274800,0.274800,0.274900,0.274900,1.000000,1.000000,1.000000,1.000000,1.000000,1.000000,1.000000,1.000000,1.000000,1.000000,1.000000,1.000000,1.000000,1.000000,1.000000,1.000000,1.000000,1.000000,1.000000,1.000000,1.000000,1.000000,1.000000,1.000000,1.000000,1.000000,1.000000,1.000000,1.000000,1.000000,1.000000,1.000000,0.267200,0.268400,0.270500,1.000000,1.000000,1.000000,1.000000,1.000000,1.000000,1.000000,0.266600,1.000000,1.000000,0.265800,1.000000,1.000000,1.000000,1.000000,1.000000,0.265100,0.265200,0.265800,0.265900,0.266000,0.267700,1.000000,1.000000,1.000000,1.000000,1.000000,1.000000,0.208000,0.207900,0.207800,0.207600,0.207500,0.207300,0.207200,0.207200,0.207100,0.207100,0.207000,0.206800,0.206600,0.206500,0.206400,0.206200,0.206100,0.205900,0.205800,0.205400,0.205300,0.205200,0.205200,0.205100,0.204800,0.204700,0.204600,0.204600,0.204600,0.204600,0.204600,0.204600,1.000000,1.000000,1.000000,1.000000,1.000000,0.203600,0.203500,0.203300,0.203000,0.202800,0.202700,0.202500,0.202400,0.202300,0.202000,0.201900,0.201800,0.201800,0.201800,0.201800,0.201700,0.201700,0.201600,0.201500,0.201400,0.201200,0.201100,0.201000,0.200900,0.200900,0.200800,0.200500,0.200100,0.200000,0.199900,0.199600,1.000000,1.000000,1.000000,0.199400,0.199300,0.199300,0.199200,0.199100,0.198900,0.198800,0.198700,0.198500,0.198400,0.198200,0.198100,0.198000,0.197900,0.197900,0.197800,0.197800,0.197800,0.197700,0.197300,0.197000,0.196800,0.196700,0.196600,0.196500,0.196500,0.196400,0.196300,0.196200,0.195700,0.195600,0.195600,0.195600,0.195700,0.195800,0.195800,0.195100,0.195000,0.194900,0.194800,0.194700,0.194600,0.194600,0.194500,0.194200,0.194000,0.193900,0.193800,0.193700,0.193600,0.193500,0.193500,0.193400,0.193300,0.193300,0.193100,0.193000,0.192800,0.192700,0.192700,0.192700,0.192700,1.000000,1.000000,1.000000,1.000000,1.000000,0.244400,1.000000,1.000000,1.000000,1.000000,1.000000,1.000000,1.000000,1.000000,1.000000,1.000000,1.000000,1.000000,1.000000,1.000000,1.000000,0.244100,0.243600
1.000000,1.000000,1.000000,0.266200,0.266300,0.266400,0.266500,0.266800,0.266900,0.267000,0.267000,0.267100,0.267300,0.268300,0.268500,0.269300,0.269400,0.269400,0.269500,0.269600,0.269800,0.270100,0.270400,0.270600,0.270600,0.272100,0.272100,0.272200,0.272200,0.272300,0.273300,0.273300,0.273400,0.273400,0.273600,0.273500,0.272700,0.272800,1.000000,1.000000,1.000000,1.000000,1.000000,1.000000,1.000000,1.000000,1.000000,1.000000,1.000000,1.000000,1.000000,1.000000,1.000000,1.000000,1.000000,1.000000,1.000000,1.000000,1.000000,1.000000,1.000000,1.000000,1.000000,1.000000,1.000000,1.000000,1.000000,1.000000,1.000000,1.000000,0.268200,1.000000,1.000000,1.000000,1.000000,1.000000,1.000000,1.000000,0.268400,0.266500,0.266500,0.266400,1.000000,1.000000,1.000000,1.000000,1.000000,1.000000,0.263600,0.263700,1.000000,0.264100,0.264200,1.000000,1.000000,1.000000,1.000000,1.000000,1.000000,1.000000,0.208100,0.208000,0.207900,0.207700,0.207600,0.207500,0.207400,0.207400,0.207200,0.207200,0.207100,0.206900,0.206700,0.206600,0.206400,0.206200,0.206200,0.206000,0.205900,0.205800,0.205700,0.205400,0.205400,0.205300,0.204900,0.204800,0.204700,0.204700,0.204700,0.204700,0.204700,0.204600,1.000000,1.000000,1.000000,1.000000,1.000000,0.203600,0.203600,0.203500,0.203000,0.202900,0.202800,0.202600,0.202500,0.202400,0.202200,0.202200,0.202000,0.201900,0.201900,0.201800,0.201800,0.201700,0.201600,0.201500,0.201400,0.201200,0.201100,0.201000,0.200900,0.200900,0.200600,0.200300,0.200100,0.200000,0.199900,0.199700,0.199300,0.199300,0.199400,0.199400,0.199400,0.199300,0.199200,0.199100,0.199000,0.198900,0.198800,0.198600,0.198500,0.198300,0.198100,0.198000,0.197900,0.197900,0.197900,0.197900,0.197800,0.197700,0.197400,0.197200,0.196900,0.196800,0.196700,0.196600,0.196500,0.196400,0.196300,0.196300,0.196000,0.195800,0.195600,0.195600,0.195700,0.195800,0.195800,0.195100,0.195000,0.194900,0.194700,0.194700,0.194600,0.194600,0.194500,0.194200,0.194100,0.193900,0.193800,0.193700,0.193700,0.193600,0.193500,0.193500,0.193400,0.193300,0.193100,0.193000,0.192800,0.192800,0.192800,0.192800,0.192800,1.000000,1.000000,1.000000,1.000000,1.000000,0.241200,0.244300,1.000000,1.000000,1.000000,1.000000,1.000000,1.000000,1.000000,1.000000,1.000000,1.000000,1.000000,1.000000,0.248800,0.244100,0.243000,1.000000
1.000000,1.000000,1.000000,0.265400,0.265700,0.265900,0.266300,0.266500,0.266600,0.266800,0.266800,0.266900,0.267200,0.267500,0.268200,0.268500,0.268800,0.269200,0.269400,0.269400,0.269600,0.269800,0.270400,0.270600,0.270600,0.270800,0.270900,0.272000,0.272200,0.272200,0.272300,0.272500,0.273200,0.273200,0.272800,0.272700,0.272700,1.000000,1.000000,1.000000,1.000000,1.000000,1.000000,1.000000,1.000000,1.000000,1.000000,1.000000,1.000000,1.000000,1.000000,1.000000,1.000000,1.000000,1.000000,1.000000,1.000000,1.000000,1.000000,1.000000,1.000000,1.000000,1.000000,1.000000,1.000000,1.000000,1.000000,1.000000,1.000000,0.265600,1.000000,0.268300,0.268100,1.000000,1.000000,1.000000,1.000000,1.000000,0.262500,0.262500,0.266500,1.000000,1.000000,1.000000,1.000000,1.000000,1.000000,1.000000,0.262400,0.262400,0.262400,1.000000,1.000000,1.000000,1.000000,1.000000,1.000000,1.000000,1.000000,1.000000,0.208200,0.208100,0.208000,0.207800,0.207700,0.207600,0.207600,0.207500,0.207400,0.207400,0.207200,0.207100,0.206800,0.206600,0.206400,0.206200,0.206200,0.206000,0.206000,0.205900,0.205700,0.205500,0.205400,0.205300,0.205000,0.204900,0.204700,0.204700,0.204700,0.204700,0.204700,0.204600,1.000000,0.152900,0.152900,1.000000,0.203600,0.203600,0.203600,0.203500,0.203100,0.203000,0.202900,0.202700,0.202600,0.202500,0.202400,0.202300,0.202200,0.202100,0.202000,0.201900,0.201900,0.201800,0.201600,0.201500,0.201400,0.201200,0.201100,0.201000,0.201000,0.200900,0.200600,0.200300,0.200100,0.200000,0.199900,0.199800,0.199800,0.199700,0.199700,0.199600,0.199400,0.199400,0.199200,0.199200,0.199000,0.199000,0.198900,0.198700,0.198600,0.198400,0.198200,0.198100,0.198000,0.197900,0.197900,0.197900,0.197800,0.197700,0.197400,0.197200,0.196900,0.196800,0.196700,0.196600,0.196500,0.196400,0.196400,0.196300,0.196000,0.195900,0.195700,0.195700,0.195700,0.195700,0.195700,0.195300,0.195000,0.194900,0.194700,0.194600,0.194600,0.194500,0.194500,0.194200,0.194100,0.193900,0.193800,0.193800,0.193700,0.193700,0.193700,0.193600,0.193600,0.193500,0.193100,0.193000,0.192800,0.192800,0.192800,0.192800,0.192900,1.000000,1.000000,1.000000,0.237300,0.237300,0.233700,0.233700,1.000000,1.000000,1.000000,1.000000,1.000000,1.000000,1.000000,1.000000,1.000000,1.000000,1.000000,1.000000,1.000000,0.243100,1.000000,1.000000
1.000000,0.265300,0.265300,0.265300,0.265300,0.265300,0.266000,0.266300,0.266400,0.266600,0.266600,0.266800,0.267100,0.267400,0.268100,0.268400,0.268500,0.268700,0.269200,0.269400,0.269500,0.269600,0.270100,0.270600,0.270600,0.270800,0.270800,0.270900,0.272100,0.272200,0.272300,0.272300,0.272300,0.270900,0.270900,0.272600,0.272600,0.270500,0.270500,1.000000,1.000000,1.000000,1.000000,1.000000,1.000000,1.000000,1.000000,1.000000,1.000000,1.000000,1.000000,1.000000,1.000000,1.000000,1.000000,1.000000,1.000000,1.000000,1.000000,1.000000,0.264700,1.000000,0.264800,1.000000,1.000000,0.260400,0.259600,0.259700,0.259800,1.000000,1.000000,1.000000,0.258900,1.000000,1.000000,1.000000,1.000000,1.000000,0.260600,0.260600,1.000000,1.000000,1.000000,1.000000,1.000000,1.000000,1.000000,1.000000,1.000000,1.000000,1.000000,1.000000,1.000000,1.000000,1.000000,1.000000,1.000000,1.000000,1.000000,1.000000,0.208200,0.208100,0.208000,0.207800,0.207800,0.207600,0.207600,0.207600,0.207400,0.207400,0.207200,0.207200,0.206800,0.206600,0.206400,0.206200,0.206200,0.206100,0.206000,0.205900,0.205800,0.205600,0.205400,0.205400,0.205100,0.205000,0.204800,0.204800,0.204700,0.204700,1.000000,1.000000,1.000000,1.000000,1.000000,1.000000,0.203700,0.203600,0.203600,0.203500,0.203200,0.203100,0.203100,0.203000,0.202900,0.202800,0.202600,0.202500,0.202300,0.202200,0.202100,0.202000,0.202000,0.201900,0.201800,0.201600,0.201400,0.201200,0.201200,0.201000,0.201000,0.200900,0.200600,0.200400,0.200100,0.200000,0.200000,0.199900,0.199800,0.199800,0.199700,0.199700,0.199500,0.199400,0.199300,0.199200,0.199100,0.199000,0.198900,0.198800,0.198700,0.198300,0.198200,0.198100,0.198000,0.198000,0.198000,0.198000,0.197900,0.197700,0.197300,0.197200,0.196900,0.196800,0.196700,0.196600,0.196500,0.196400,0.196400,0.196300,0.196100,0.196000,0.195800,0.195800,0.195700,0.195700,0.195700,0.195600,0.195600,0.195200,0.194700,0.194700,0.194600,0.194500,0.194500,0.194300,0.194200,0.194000,0.194000,0.193900,0.193800,0.193700,0.193700,0.193700,0.193600,0.193600,0.193000,0.192900,0.192800,0.192800,0.192800,0.192800,0.192900,1.000000,1.000000,1.000000,0.236400,0.235800,0.233700,1.000000,1.000000,1.000000,1.000000,1.000000,1.000000,1.000000,1.000000,1.000000,1.000000,1.000000,1.000000,1.000000,1.000000,1.000000,1.000000,1.000000
0.265300,0.265300,0.265300,0.265300,0.265300,0.265200,0.265200,0.266100,0.266100,0.266200,0.266200,0.266300,0.266700,0.267000,0.267600,0.268400,0.268500,0.268600,0.268800,0.269000,0.269400,0.269400,0.269500,0.269600,0.270600,0.270700,0.269900,0.269800,0.269800,0.269700,0.269600,0.269600,0.269500,0.269500,0.269400,0.272600,0.272600,1.000000,1.000000,1.000000,1.000000,1.000000,1.000000,1.000000,1.000000,1.000000,0.266400,1.000000,1.000000,1.000000,1.000000,1.000000,1.000000,1.000000,1.000000,1.000000,1.000000,1.000000,1.000000,1.000000,0.260700,0.262200,0.263600,1.000000,1.000000,0.259300,0.259200,0.258900,0.258700,1.000000,0.255900,0.255900,0.255900,1.000000,1.000000,1.000000,1.000000,0.255100,0.255100,0.253400,0.253400,0.253400,0.255600,0.255700,1.000000,1.000000,1.000000,1.000000,1.000000,1.000000,0.255400,0.255400,0.255400,0.255500,0.255500,0.254500,0.250600,0.249500,1.000000,1.000000,0.208200,0.208100,0.208000,0.207900,0.207800,0.207700,0.207600,0.207600,0.207400,0.207400,0.207200,0.207100,0.206600,0.206400,0.206400,0.206200,0.206200,0.206100,0.206000,0.205900,0.205800,0.205700,0.205500,0.205400,0.205200,0.205100,0.204800,0.204800,0.204700,0.204700,0.204700,0.204700,1.000000,1.000000,1.000000,0.203900,0.203700,0.203700,0.203600,0.203500,0.203400,0.203200,0.203200,0.203100,0.203000,0.202900,0.202700,0.202600,0.202400,0.202400,0.202200,0.202200,0.202100,0.202000,0.201900,0.201700,0.201500,0.201300,0.201200,0.201100,0.201000,0.200900,0.200600,0.200500,0.200200,0.200200,0.200100,0.200000,0.200000,0.199900,0.199800,0.199700,0.199500,0.199400,0.199300,0.199200,0.199100,0.199000,0.198900,0.198800,0.198700,0.198300,0.198200,0.198100,0.198100,0.198000,0.198000,0.198000,0.197900,0.197600,0.197300,0.197200,0.196900,0.196800,0.196700,0.196600,0.196500,0.196400,0.196400,0.196300,0.196100,0.196000,0.195900,0.195800,0.195800,0.195700,0.195700,0.195600,0.195600,0.195500,0.194800,0.194700,0.194700,0.194600,0.194500,0.194300,0.194200,0.194100,0.194100,0.194000,0.193900,0.193900,0.193800,0.193800,0.193800,0.193700,0.193000,0.192900,0.192800,0.192800,0.192800,0.192900,0.193000,1.000000,0.235400,0.235400,0.233700,0.233700,0.232600,0.232600,0.230900,0.230900,1.000000,1.000000,1.000000,1.000000,1.000000,1.000000,0.234000,0.233100,0.234000,1.000000,1.000000,1.000000,0.231400,0.231400
0.263600,0.263600,0.263700,0.263700,0.263800,0.263900,0.264000,0.265200,0.266000,0.266000,0.265500,0.265400,0.265400,0.265500,0.267300,0.268400,0.268500,0.268500,0.268700,0.268900,0.269300,0.269400,0.269400,0.269500,0.269500,0.269800,0.269000,0.268100,0.268200,0.268200,0.269600,0.269600,0.269500,0.269500,0.267800,0.269300,1.000000,1.000000,1.000000,1.000000,1.000000,1.000000,1.000000,1.000000,0.257600,0.256100,0.266400,1.000000,0.489200,0.489200,1.000000,1.000000,1.000000,1.000000,1.000000,1.000000,1.000000,1.000000,0.258300,0.258400,0.259400,0.260500,0.253900,0.253700,1.000000,0.252800,0.252800,0.252800,0.253800,0.254100,0.254100,0.255900,0.255900,1.000000,1.000000,1.000000,0.254400,0.253600,0.252400,0.251100,0.251100,0.252700,0.253300,0.253400,1.000000,1.000000,1.000000,1.000000,1.000000,1.000000,1.000000,1.000000,1.000000,1.000000,1.000000,1.000000,1.000000,0.249600,1.000000,1.000000,0.208200,0.208100,0.208100,0.207900,0.207800,0.207700,0.207600,0.207500,0.207400,0.207300,0.207200,0.207100,0.206600,0.206400,0.206400,0.206200,0.206200,0.206100,0.206000,0.205900,0.205800,0.205700,0.205500,0.205400,0.205200,0.205100,0.204900,0.204800,0.204800,0.204800,0.204800,1.000000,1.000000,1.000000,1.000000,0.203900,0.203800,0.203800,0.203600,0.203600,0.203500,0.203300,0.203300,0.203200,0.203100,0.203000,0.202800,0.202600,0.202500,0.202400,0.202300,0.202200,0.202200,0.202000,0.201900,0.201700,0.201500,0.201400,0.201300,0.201100,0.201000,0.200900,0.200600,0.200500,0.200300,0.200200,0.200200,0.200100,0.200000,0.199900,0.199800,0.199700,0.199500,0.199400,0.199300,0.199100,0.198900,0.198900,0.198800,0.198700,0.198600,0.198400,0.198300,0.198200,0.198100,0.198100,0.198100,0.198000,0.198000,0.197600,0.197400,0.197200,0.197000,0.196900,0.196800,0.196600,0.196600,0.196400,0.196400,0.196300,0.196200,0.196100,0.196000,0.196000,0.195900,0.195800,0.195800,0.195600,0.195600,0.195500,0.195100,0.195000,0.194800,0.194800,0.194700,0.194400,0.194300,0.194200,0.194200,0.194100,0.194000,0.194000,0.193900,0.193800,0.193800,0.193800,0.192900,0.192900,0.192800,0.192800,0.192900,0.193000,1.000000,0.230500,1.000000,0.233800,0.232500,0.232500,0.232600,1.000000,0.230900,0.230900,0.230900,1.000000,1.000000,1.000000,1.000000,1.000000,0.229100,0.229000,0.228800,0.228400,0.228000,0.226800,0.226700,0.226800
0.262600,0.263600,0.263600,0.263700,0.263800,0.263800,0.263900,0.264400,0.265100,0.265300,0.265200,0.265200,0.265300,0.265400,0.267200,0.268400,0.268500,0.268500,0.268600,0.268700,0.269300,0.269400,0.269400,0.269500,0.268600,0.268500,0.266400,0.266300,0.266200,0.266200,0.268200,0.269600,0.269500,0.269500,0.266400,0.264400,1.000000,1.000000,1.000000,1.000000,1.000000,1.000000,1.000000,1.000000,0.253600,0.253700,0.253700,1.000000,1.000000,1.000000,1.000000,1.000000,1.000000,1.000000,1.000000,1.000000,1.000000,1.000000,0.258300,0.258400,0.259400,1.000000,0.253900,0.253700,1.000000,0.252800,0.251500,0.251400,0.251200,0.250700,0.250700,0.250600,1.000000,1.000000,1.000000,0.250600,0.250600,0.250800,0.251000,0.249900,0.250000,0.250000,0.250800,0.250800,1.000000,1.000000,1.000000,1.000000,1.000000,1.000000,1.000000,1.000000,1.000000,1.000000,1.000000,1.000000,1.000000,1.000000,1.000000,1.000000,0.208200,0.208100,0.208100,0.208000,0.207900,0.207700,0.207600,0.207500,0.207300,0.207300,0.207200,0.207100,0.206700,0.206500,0.206400,0.206200,0.206200,0.206100,0.206000,0.206000,0.205800,0.205700,0.205600,0.205400,0.205300,0.205200,0.205000,0.204900,0.204800,0.204800,0.204800,1.000000,1.000000,1.000000,1.000000,0.204000,0.203900,0.203800,0.203700,0.203600,0.203500,0.203400,0.203400,0.203200,0.203200,0.203000,0.202800,0.202700,0.202500,0.202400,0.202400,0.202200,0.202200,0.202100,0.201900,0.201700,0.201500,0.201400,0.201400,0.201200,0.201100,0.200900,0.200600,0.200600,0.200400,0.200300,0.200200,0.200100,0.200100,0.199900,0.199800,0.199700,0.199600,1.000000,1.000000,0.199100,0.198900,0.198800,0.198800,0.198700,0.198600,0.198400,0.198400,0.198300,0.198200,0.198100,0.198100,0.198000,0.198000,0.197600,0.197400,0.197200,0.197100,0.196900,0.196800,0.196700,0.196600,0.196500,0.196400,0.196300,0.196200,0.196200,0.196100,0.196000,0.196000,0.195900,0.195800,0.195700,0.195600,0.195500,0.195200,0.195100,0.195000,0.194800,0.194800,0.194500,0.194400,0.194300,0.194200,0.194200,0.194100,0.194000,0.193900,0.193900,0.193800,0.193700,0.192900,0.192900,0.192800,0.192900,0.192900,0.193000,0.193200,0.228200,0.230400,0.232200,0.232400,1.000000,0.229200,0.229200,0.229200,0.229200,0.230100,1.000000,1.000000,1.000000,1.000000,0.228100,0.227500,0.229000,0.227700,0.226600,0.226700,0.226600,0.225100,0.225300
0.262600,0.262600,0.263600,0.263700,0.263700,0.263700,0.263700,0.263900,0.264200,0.265100,0.265100,0.265100,0.265200,0.265200,0.265500,0.268400,0.268400,0.268400,0.268500,0.268400,0.268500,0.269400,0.269500,0.268600,0.265200,0.265100,0.263500,0.263600,0.263700,0.262500,0.257300,0.257300,1.000000,1.000000,0.263100,0.263100,1.000000,1.000000,1.000000,1.000000,1.000000,1.000000,1.000000,1.000000,0.253600,0.252000,0.252000,1.000000,1.000000,1.000000,1.000000,1.000000,1.000000,1.000000,1.000000,1.000000,1.000000,1.000000,1.000000,1.000000,1.000000,0.249800,0.251600,1.000000,1.000000,1.000000,0.251500,1.000000,1.000000,1.000000,1.000000,0.248200,0.248000,1.000000,1.000000,1.000000,1.000000,0.248700,0.248700,0.248600,0.248600,0.248600,0.247400,0.246000,0.245900,0.243200,0.245000,1.000000,1.000000,1.000000,1.000000,1.000000,1.000000,1.000000,1.000000,1.000000,1.000000,1.000000,1.000000,1.000000,0.208200,0.208200,0.208200,0.208100,0.208000,0.207800,0.207600,0.207400,0.207300,0.207300,0.207200,0.207100,0.206700,0.206600,0.206400,0.206300,0.206200,0.206100,0.206000,0.206000,0.205800,0.205800,0.205600,0.205500,0.205400,0.205200,0.205000,0.204800,0.204800,0.204700,1.000000,1.000000,1.000000,1.000000,1.000000,0.204000,0.203900,0.203900,0.203700,0.203700,0.203600,0.203500,0.203400,0.203300,0.203200,0.203100,0.202800,0.202700,0.202500,0.202500,0.202400,0.202300,0.202200,0.202100,0.202000,0.201700,0.201500,0.201500,0.201500,0.201400,0.201200,0.201000,0.200700,0.200600,0.200500,0.200500,0.200400,0.200200,0.200200,0.200000,0.199900,0.199800,0.199600,1.000000,1.000000,1.000000,1.000000,0.198800,0.198800,0.198700,0.198700,0.198500,0.198400,0.198300,0.198200,0.198200,0.198100,0.198000,0.197900,0.197700,0.197500,0.197300,0.197100,0.197000,0.196900,0.196700,0.196600,0.196500,0.196500,0.196400,0.196300,0.196200,0.196200,0.196100,0.196100,0.195900,0.195900,0.195700,0.195600,0.195500,0.195300,0.195200,0.195000,0.194900,0.194800,0.194500,0.194500,0.194400,0.194300,0.194300,0.194200,0.194100,0.194000,0.193900,0.193700,0.193600,0.193000,0.192900,0.192900,0.192900,0.193100,0.193200,0.193300,0.224100,0.226700,0.228200,0.232400,1.000000,0.224300,0.224300,0.225600,0.227200,0.227400,0.227500,1.000000,0.228400,0.226000,0.226000,0.226000,1.000000,0.226700,0.225200,0.225000,0.224100,0.223200,0.222700
0.262600,0.261600,0.261600,0.261600,0.261800,0.262700,0.263400,0.263500,0.263500,0.265000,0.265000,0.265000,0.265100,0.264200,0.265400,0.268400,0.268400,0.268400,0.268400,0.268300,0.268300,1.000000,0.269700,1.000000,0.263400,0.263500,0.263500,0.263600,0.263700,0.257300,0.253700,0.253700,1.000000,1.000000,1.000000,0.257000,0.257000,1.000000,1.000000,1.000000,0.252700,0.252700,1.000000,1.000000,0.251700,1.000000,0.251900,1.000000,1.000000,1.000000,1.000000,0.248900,0.248900,1.000000,1.000000,1.000000,1.000000,1.000000,0.247400,1.000000,0.247500,0.249000,0.249100,1.000000,1.000000,1.000000,1.000000,1.000000,1.000000,1.000000,0.248200,0.247500,0.247400,0.247000,0.245900,0.246000,0.246100,0.245200,0.248700,0.248600,0.248600,0.247300,0.246000,0.243900,0.241500,0.241600,0.243300,0.245000,1.000000,1.000000,1.000000,1.000000,0.243700,0.243800,0.244400,1.000000,1.000000,0.243000,1.000000,1.000000,0.208300,0.208200,0.208200,0.208100,0.208000,0.207800,0.207600,0.207400,0.207400,0.207400,0.207400,0.207400,0.206800,0.206700,0.206600,0.206400,0.206300,0.206200,0.206200,0.206100,0.206000,0.205900,0.205700,0.205600,0.205500,0.205200,0.205000,0.204800,0.204800,0.204700,1.000000,1.000000,1.000000,1.000000,1.000000,0.204000,0.204000,0.204000,0.203900,0.203800,0.203700,0.203600,0.203500,0.203400,0.203200,0.203100,0.202800,0.202700,0.202500,0.202400,0.202400,0.202300,0.202200,0.202100,0.202000,0.201700,0.201500,0.201500,0.201500,0.201500,0.201300,0.201200,0.200800,0.200700,0.200600,0.200500,0.200500,0.200300,0.200200,0.199900,0.199800,0.199700,0.199600,0.199600,0.199500,0.199300,0.198900,0.198900,0.198800,0.198800,0.198700,0.198600,0.198500,0.198400,0.198300,0.198200,0.198100,0.198000,0.197900,0.197800,0.197600,0.197400,0.197200,0.197100,0.196900,0.196900,0.196800,0.196700,0.196600,0.196500,0.196400,0.196400,0.196400,0.196300,0.196300,0.196100,0.196000,0.195700,0.195600,0.195600,0.195400,0.195300,0.195000,0.194900,0.194800,0.194600,0.194500,0.194400,0.194300,0.194300,0.194200,0.194100,0.194000,0.193800,0.193700,0.193600,0.193300,0.193000,0.193000,0.193000,0.193100,0.193500,0.193500,0.222000,0.224100,0.224100,1.000000,1.000000,0.220200,0.222300,0.223300,0.224400,0.225600,0.225500,1.000000,0.224400,0.224200,0.224300,0.226000,1.000000,0.224300,0.224300,0.221900,0.222000,0.222500,0.222600
1.000000,0.261400,0.261200,0.257000,0.257000,0.258900,0.261400,0.261400,0.261500,0.261500,0.265000,1.000000,1.000000,1.000000,0.253100,0.254400,0.255700,0.257000,0.257000,0.257000,0.261100,1.000000,1.000000,0.264300,0.262700,0.263400,1.000000,1.000000,1.000000,0.253600,1.000000,1.000000,1.000000,1.000000,1.000000,1.000000,1.000000,1.000000,1.000000,1.000000,1.000000,0.250200,1.000000,0.250000,1.000000,1.000000,1.000000,1.000000,1.000000,1.000000,1.000000,0.247600,0.247700,0.247800,1.000000,0.247900,0.247500,0.246000,0.244600,1.000000,1.000000,1.000000,1.000000,0.252900,1.000000,1.000000,1.000000,1.000000,1.000000,1.000000,1.000000,1.000000,0.245800,0.245900,0.242300,0.242300,1.000000,0.245200,0.246600,0.243400,0.247200,0.246000,0.242600,0.241500,0.240500,0.239000,0.239000,0.239000,1.000000,1.000000,1.000000,1.000000,1.000000,0.240900,0.242600,1.000000,0.237100,0.235600,0.235400,1.000000,0.208400,0.208400,0.208300,0.208200,0.208100,0.207800,0.207600,0.207500,0.207400,0.207400,0.207400,0.207500,0.206900,0.206700,0.206600,0.206500,0.206400,0.206300,0.206200,0.206200,0.206100,0.206000,0.205800,0.205700,0.205500,0.205200,0.205100,0.204900,0.204800,0.204800,1.000000,1.000000,1.000000,1.000000,1.000000,0.204000,0.204000,0.204000,0.203900,0.203800,0.203800,0.203700,0.203600,0.203400,0.203200,0.203100,0.202800,0.202700,0.202500,0.202400,0.202400,0.202200,0.202200,0.202000,0.201900,0.201700,0.201500,0.201500,0.201500,0.201500,0.201300,0.201200,0.201100,0.200900,0.200700,0.200600,0.200600,0.200400,0.200200,0.199800,0.199700,0.199700,0.199600,0.199600,0.199600,0.200900,0.199000,0.198900,0.198900,0.198800,0.198800,0.198600,0.198500,0.198400,0.198300,0.198200,0.198100,0.198000,0.197900,0.197800,0.197700,0.197400,0.197200,0.197100,0.196900,0.196900,0.196800,0.196800,0.196700,0.196600,0.196500,0.196500,0.196500,0.196500,0.196500,0.196200,0.196000,0.195800,0.195600,0.195600,0.195400,0.195300,0.195000,0.194900,0.194800,0.194700,0.194600,0.194500,0.194400,0.194300,0.194200,0.194100,0.193900,0.193800,0.193700,0.193600,0.193500,0.193300,0.193300,0.193500,0.193600,0.193700,0.193700,0.200100,0.219800,0.219800,0.217000,0.216900,0.217000,0.218400,0.219600,0.219800,0.223400,0.223400,1.000000,0.220700,0.220700,0.221800,1.000000,1.000000,0.221900,0.220800,0.220800,0.221600,0.222500,0.221900
1.000000,1.000000,0.256900,0.248200,0.248200,0.249800,0.255700,1.000000,0.255600,1.000000,1.000000,1.000000,1.000000,1.000000,0.250300,0.250900,0.252000,0.254600,0.255000,0.253800,1.000000,1.000000,1.000000,0.256600,0.256600,1.000000,1.000000,1.000000,1.000000,1.000000,1.000000,1.000000,1.000000,0.246200,1.000000,1.000000,1.000000,1.000000,1.000000,1.000000,1.000000,0.250200,0.250100,1.000000,1.000000,1.000000,1.000000,1.000000,1.000000,1.000000,1.000000,0.246400,0.243000,0.246300,0.240600,0.240600,0.240400,0.240400,0.240400,0.240400,0.242300,0.242400,0.240700,0.240700,1.000000,1.000000,1.000000,1.000000,1.000000,1.000000,0.237700,0.238600,0.238600,0.240400,0.240300,0.240300,0.240200,0.240200,0.241400,0.241600,0.241600,0.241600,0.241600,0.240400,0.236600,0.236600,0.236600,0.236700,1.000000,1.000000,1.000000,1.000000,1.000000,0.237200,0.237200,0.235700,0.235600,0.235500,0.234400,1.000000,0.208400,0.208400,0.208400,0.208300,0.208200,0.207900,0.207700,0.207700,0.207600,0.207600,0.207600,0.207600,0.207500,0.207200,0.206900,0.206600,0.206500,0.206400,0.206400,0.206300,0.206200,0.206200,0.206000,0.205900,0.205800,0.205300,0.205200,0.205000,0.204900,1.000000,1.000000,1.000000,1.000000,1.000000,0.204000,0.204000,0.204000,0.203900,0.203900,0.203900,0.203800,0.203700,0.203600,0.203400,0.203200,0.203100,0.202800,0.202700,0.202500,0.202400,0.202300,0.202200,0.202100,0.202000,0.201900,0.201800,0.201600,0.201500,0.201500,0.201400,0.201300,0.201200,0.201100,0.200900,0.200800,0.200700,0.200600,0.200400,0.199900,0.199700,0.199700,0.199600,0.199600,0.199700,0.199700,0.200900,0.201000,0.199100,0.199300,0.198900,0.198800,0.198700,0.198600,0.198500,0.198300,0.198300,0.198100,0.198100,0.198000,0.197900,0.197800,0.197300,0.197200,0.197100,0.197000,0.196900,0.196900,0.196900,0.196900,0.196800,0.196700,0.196700,0.196700,0.196700,0.196700,0.196700,0.196600,0.195800,0.195700,0.195600,0.195500,0.195400,0.195000,0.194900,0.194800,0.194700,0.194700,0.194500,0.194400,0.194400,0.194200,0.194100,0.193900,0.193800,0.193700,0.193600,0.193600,0.193500,0.193500,0.193600,0.193600,0.193600,0.193600,0.202600,1.000000,1.000000,0.216100,0.216100,0.216000,0.217600,0.218100,0.218600,0.219600,0.219600,1.000000,0.217800,0.217800,0.219100,1.000000,1.000000,0.218800,0.218400,0.218800,0.220800,0.220800,0.218600
1.000000,1.000000,1.000000,0.246700,0.248000,0.248200,0.255700,0.255700,0.255600,0.255500,1.000000,1.000000,1.000000,1.000000,0.248000,0.249300,0.249300,0.250800,0.250800,0.248400,1.000000,1.000000,1.000000,1.000000,1.000000,1.000000,1.000000,1.000000,1.000000,0.242400,1.000000,1.000000,0.244000,1.000000,0.244500,1.000000,1.000000,1.000000,1.000000,1.000000,1.000000,1.000000,1.000000,1.000000,1.000000,1.000000,1.000000,1.000000,1.000000,1.000000,1.000000,1.000000,0.243000,0.239900,0.238600,0.237900,0.240400,0.237900,0.237700,0.236900,0.236800,0.236700,0.237500,0.240600,0.240700,1.000000,1.000000,0.237400,0.236400,0.237500,0.237500,0.237700,0.238600,0.238800,0.238900,0.239000,0.239300,0.239400,0.240000,0.240000,0.239000,0.239000,0.239000,0.239000,0.233100,0.233200,0.235000,0.235100,0.235300,0.235400,1.000000,1.000000,0.235600,0.234000,1.000000,0.234200,0.234400,0.234400,1.000000,1.000000,0.208600,0.208500,0.208500,0.208400,0.208300,0.208100,0.207800,0.207800,0.207700,0.207700,0.207700,0.207700,0.207500,0.207400,0.207100,0.206700,0.206600,0.206400,0.206400,0.206400,0.206400,0.206300,0.206200,0.206100,0.206000,0.205400,0.205300,0.205200,0.205100,0.204900,1.000000,1.000000,1.000000,1.000000,0.204000,1.000000,0.203900,0.203900,0.203900,0.203800,0.203800,0.203700,0.203600,0.203400,0.203200,0.203100,0.202900,0.202800,0.202500,0.202400,0.202300,0.202200,0.202100,0.202000,0.201900,0.201800,0.201600,0.201500,0.201500,0.201400,0.201300,0.201200,0.201100,0.200900,0.200900,0.200800,0.200700,0.200300,0.199900,0.199700,0.199700,0.199600,0.199600,0.199700,0.199700,0.200000,0.201000,0.201000,0.199400,0.198900,0.198900,0.198700,0.198600,0.198600,0.198400,0.198300,0.198200,0.198200,0.198100,0.197900,0.197800,0.197400,0.197300,0.197100,0.197000,0.197000,0.196900,0.196900,0.196900,0.196800,0.196800,0.196800,0.196800,0.196800,0.196800,0.196700,0.196700,0.195800,0.195700,0.195700,0.195600,0.195500,0.195000,0.195000,0.194900,0.194800,0.194700,0.194600,0.194500,0.194400,0.194200,0.194100,0.193900,0.193800,0.193700,0.193700,0.193600,0.193600,0.193600,0.193600,0.193600,0.193500,0.193500,0.202600,0.213400,0.216200,0.214000,0.213900,0.213900,0.214200,0.215600,0.217700,0.217800,0.216000,0.216000,0.215900,0.215900,0.217800,1.000000,1.000000,1.000000,0.218000,0.218000,0.218100,0.218300,0.217300
1.000000,1.000000,0.243400,0.243400,0.245800,0.247700,1.000000,1.000000,0.255500,1.000000,1.000000,1.000000,1.000000,1.000000,0.245400,0.245400,0.245300,0.245300,0.244200,0.241900,0.240300,1.000000,1.000000,1.000000,1.000000,1.000000,0.244200,0.243500,0.243000,0.242300,0.240000,0.239900,0.239900,0.241100,0.242500,0.244200,1.000000,1.000000,0.242800,0.242800,1.000000,1.000000,1.000000,1.000000,1.000000,0.238400,0.238200,0.238000,0.236300,0.236100,0.236200,0.238600,0.238700,0.238600,0.237600,0.237300,0.237200,0.237000,0.237000,0.235600,0.235600,1.000000,0.237000,0.237500,0.239300,0.240100,0.240100,0.235800,0.235600,0.235600,0.236100,0.237700,0.238000,0.238800,0.238700,0.238400,0.238400,0.238300,0.238200,0.238200,0.236800,0.236700,0.236700,0.235400,0.231100,0.231100,0.231000,0.232300,0.232300,0.232100,0.231800,0.231700,0.231500,0.231400,0.232600,0.232600,0.232700,0.232800,0.232800,1.000000,0.208700,0.208700,0.208600,0.208600,0.208500,0.208400,0.208200,0.207900,0.207800,0.207800,0.207700,0.207700,0.207500,0.207400,0.207200,0.206800,0.206600,0.206500,0.206500,0.206500,0.206500,0.206500,0.206300,0.206200,0.206100,0.205700,0.205500,0.205400,1.000000,1.000000,1.000000,1.000000,1.000000,0.204200,0.204100,0.204100,0.203900,0.203900,0.203800,0.203800,0.203700,0.203600,0.203600,0.203400,0.203300,0.203200,0.203100,0.203100,0.202700,0.202500,0.202400,0.202200,0.202100,0.202000,0.201900,0.201800,0.201700,0.201600,0.201500,0.201500,0.201300,0.201200,0.201100,0.201000,0.200900,0.200800,0.200700,0.200600,0.199900,0.199700,0.199700,0.199700,0.199700,0.199700,0.199800,0.199900,0.199800,0.199600,0.199200,0.199000,0.198900,0.198700,0.198700,0.198600,0.198500,0.198400,0.198300,0.198200,0.198200,0.198000,0.197900,0.197600,0.197400,0.197200,0.197000,0.197000,0.197000,0.196900,0.196900,0.196900,0.196900,0.196800,0.196800,0.196800,0.196700,0.196600,0.196600,0.195800,0.195800,0.195700,0.195600,0.195600,0.195300,0.195100,0.195000,0.194800,0.194700,0.194600,0.194500,0.194400,0.194200,0.194100,0.193900,0.193800,0.193800,0.193700,0.193700,0.193700,0.193600,0.193500,0.193500,0.193500,0.193500,0.202600,0.210600,0.212000,0.212400,0.212400,0.213800,0.213700,0.213000,0.213000,0.213000,0.213300,0.215200,0.215400,0.215400,0.215500,1.000000,1.000000,1.000000,1.000000,1.000000,0.214500,0.214500,0.215100
1.000000,0.240600,0.239900,0.239700,0.240800,0.242100,1.000000,1.000000,1.000000,0.247800,1.000000,1.000000,1.000000,1.000000,1.000000,0.242300,0.243200,0.243000,0.240100,0.239000,1.000000,0.240400,1.000000,1.000000,1.000000,1.000000,0.242700,0.242400,0.242300,0.238300,0.238400,0.238500,0.238600,0.239600,0.239700,1.000000,1.000000,0.241900,0.241900,0.241900,1.000000,1.000000,1.000000,1.000000,0.237400,0.237500,0.237600,0.237600,0.236000,0.234600,0.234300,0.234600,0.235800,0.235700,0.233700,0.233700,0.233700,0.234600,0.234500,0.234500,0.234400,0.234800,0.235200,0.236700,0.237500,0.233900,0.233800,0.231900,0.231900,0.231900,0.231900,0.237400,0.237900,0.238100,0.234700,0.234700,0.234800,0.234900,0.235700,0.235800,0.236700,0.236600,0.236700,0.231100,0.228400,0.228400,0.228400,0.228300,0.230200,0.230100,0.230000,0.230000,0.230000,0.230100,0.231200,0.232500,0.232600,0.232100,0.227800,0.212000,0.208800,0.208700,0.208700,0.208600,0.208500,0.208500,0.208400,0.208300,0.207900,0.207800,0.207800,0.207700,0.207600,0.207500,0.207400,0.207200,0.207000,0.206700,0.206700,0.206700,0.206700,0.206700,0.206600,0.206500,0.206400,0.206000,0.205800,0.205700,1.000000,1.000000,1.000000,1.000000,1.000000,0.204400,0.204300,0.204200,0.204000,0.203900,0.203800,0.203800,0.203700,0.203600,0.203600,0.203400,0.203400,0.203300,0.203200,0.203200,0.203000,0.202800,0.202600,0.202300,0.202200,0.202000,0.201900,0.201900,0.201700,0.201700,0.201600,0.201500,0.201400,0.201200,0.201200,0.201000,0.200900,0.200800,0.200800,0.200700,0.200000,0.199800,0.199700,0.199700,0.199700,0.199800,0.199800,0.199800,0.199700,0.199400,0.199200,0.199000,0.198900,0.198900,0.198800,0.198800,0.198700,0.198600,0.198500,0.198400,0.198300,0.198200,0.198100,0.197900,0.197800,0.197800,0.197600,0.197400,0.197100,0.197000,0.197000,0.196900,0.196900,0.196800,0.196800,0.196700,0.196600,0.196600,0.196500,0.196000,0.195900,0.195900,0.195800,0.195700,0.195400,0.195100,0.195000,0.194800,0.194700,0.194600,0.194500,0.194400,0.194200,0.194100,0.193900,0.193800,0.193800,0.193800,0.193800,0.193700,0.193600,0.193500,0.193400,0.193400,0.193400,0.202600,0.210600,0.210600,0.212300,0.212400,0.212500,0.212600,0.212100,0.212100,0.212300,0.212600,0.213600,0.214600,0.215300,0.215400,1.000000,1.000000,1.000000,1.000000,1.000000,0.212000,0.212400,0.212700
0.240200,0.239900,0.239800,0.239000,0.239000,0.240700,1.000000,1.000000,0.242600,1.000000,1.000000,1.000000,1.000000,0.236600,1.000000,0.235400,0.237200,0.237100,0.237000,0.236800,0.240300,1.000000,1.000000,1.000000,1.000000,0.241100,0.239600,0.238600,0.238000,0.237900,0.237900,1.000000,1.000000,0.238600,0.236700,0.236000,0.236000,0.236000,0.236200,0.239800,1.000000,1.000000,1.000000,1.000000,0.233700,0.233700,0.233700,0.235600,0.232600,0.231400,0.231800,0.232700,0.233600,0.233600,0.232000,0.231800,1.000000,0.233200,0.233200,0.233200,0.233200,0.233300,0.233800,1.000000,1.000000,0.229400,0.228400,0.228400,0.228400,0.228400,0.229300,0.230800,1.000000,0.231800,0.232600,0.232800,0.232900,0.233000,0.233100,1.000000,1.000000,1.000000,1.000000,0.229600,0.228300,0.228300,0.227100,0.227100,0.228400,0.226800,0.228300,0.228500,0.228900,0.229400,0.229400,0.229200,0.229200,0.227800,0.223600,0.213600,0.209700,0.208700,0.208700,0.208600,0.208600,0.208500,0.208400,0.208400,0.208000,0.207900,0.207800,0.207700,0.207600,0.207500,0.207400,0.207200,0.207100,0.206800,0.206800,0.206800,0.206800,0.206800,0.206600,0.206600,0.206500,0.206100,0.205800,0.205700,1.000000,1.000000,1.000000,1.000000,1.000000,0.204500,0.204400,0.204400,0.204100,0.204000,0.203800,0.203800,0.203700,0.203600,0.203600,0.203500,0.203400,0.203400,0.203400,0.203300,0.203100,0.203000,0.202900,0.202600,0.202500,0.202100,0.202000,0.202000,0.201800,0.201800,0.201700,0.201600,0.201500,0.201400,0.201300,0.201100,0.201000,0.200900,0.200800,0.200700,0.200500,0.200300,0.199900,0.199900,0.199900,0.199900,0.199800,0.199800,0.199600,0.199400,0.199200,0.199000,0.199000,0.198900,0.198900,0.198900,0.198800,0.198700,0.198500,0.198400,0.198400,0.198200,0.198100,0.198000,0.197900,0.197800,0.197700,0.197600,0.197200,0.197100,0.197100,0.197000,0.196900,0.196700,0.196600,0.196600,0.196500,0.196400,0.196300,0.196100,0.196000,0.195900,0.195800,0.195800,0.195500,0.195100,0.195000,0.194800,0.194700,0.194600,0.194500,0.194400,0.194200,0.194100,0.193900,0.193800,0.193700,0.193700,0.193800,0.193700,0.193600,0.193500,0.193500,0.193400,0.193400,0.207400,0.208500,0.209500,0.210700,0.210800,0.211000,0.211000,0.210800,0.210600,0.210700,0.212200,0.212300,0.212200,0.211200,0.208700,0.208100,0.209800,0.209100,0.209300,0.210500,0.210600,0.210600,0.210400
0.237200,0.237200,0.235300,0.235000,0.235200,0.236600,1.000000,1.000000,0.235400,0.235300,0.235400,0.235400,0.235600,0.234100,1.000000,0.232100,0.234000,0.235500,0.235600,0.236000,1.000000,1.000000,1.000000,1.000000,1.000000,1.000000,0.237900,0.237900,0.238000,0.237900,1.000000,0.230700,1.000000,0.232700,0.233900,0.233900,0.233800,0.233800,0.233800,0.237000,1.000000,1.000000,1.000000,1.000000,0.231100,0.231100,1.000000,0.232500,0.230900,0.230200,0.230000,0.230100,0.232400,0.232000,0.230800,0.230800,0.229200,0.229300,0.229500,0.232000,0.232000,0.232000,0.231400,0.230100,0.228400,0.226800,0.226800,0.225200,0.224800,0.224700,0.224600,0.226100,1.000000,0.229400,0.229700,0.230900,0.230800,0.226000,0.226000,0.225000,1.000000,1.000000,1.000000,0.227500,0.226900,0.224900,0.223800,0.223600,0.223600,0.223600,0.225700,0.225700,0.225600,0.225600,0.225400,0.225400,0.225200,0.225200,0.222300,0.218500,0.209700,0.208700,0.208600,0.208600,0.208600,0.208500,0.208500,0.208400,0.208200,0.208100,0.207900,0.207800,0.207700,0.207600,0.207500,0.207300,0.207200,0.207000,0.206900,0.206900,0.206800,0.206700,0.206600,0.206600,0.206500,0.205900,0.205800,0.203300,1.000000,1.000000,1.000000,1.000000,1.000000,0.204600,0.204500,0.204500,0.204300,0.204200,0.203900,0.203900,0.203800,0.203700,0.203600,0.203500,0.203500,0.203400,0.203400,0.203300,0.203100,0.203000,0.202900,0.202700,0.202600,0.202200,0.202100,0.202000,0.201900,0.201800,0.201700,0.201700,0.201600,0.201500,0.201400,0.201200,0.201000,0.200900,0.200800,0.200800,0.200600,0.200500,0.200100,0.200000,0.199900,0.199900,0.199800,0.199800,0.199600,0.199400,0.199400,0.199200,0.199100,0.199100,0.199000,0.199000,0.198900,0.198800,0.198600,0.198500,0.198400,0.198300,0.198200,0.198000,0.198000,0.197900,0.197700,0.197600,0.197400,0.197300,0.197200,0.197000,0.196900,0.196700,0.196600,0.196500,0.196400,0.196400,0.196300,0.196200,0.196100,0.196000,0.195900,0.195900,0.195200,0.195000,0.194900,0.194800,0.194700,0.194600,0.194500,0.194400,0.194200,0.194100,0.193900,0.193800,0.193700,0.193700,0.193700,0.193700,0.193700,0.193600,0.193500,0.193500,0.193500,0.205100,0.207800,0.208400,0.208400,0.208400,0.208600,0.208800,0.209000,0.209200,0.210300,0.211700,0.211600,0.211200,0.208700,0.208000,0.206700,0.206700,0.208400,0.208400,0.209200,0.209200,0.209900,0.210300
0.233800,0.232000,0.232000,0.234800,0.235200,0.235400,0.235400,1.000000,0.233800,0.233800,0.233800,0.233900,0.234000,0.232300,1.000000,0.232100,0.232000,0.234000,0.235500,0.235900,1.000000,1.000000,1.000000,1.000000,0.232700,0.232700,0.232600,0.232600,1.000000,0.232800,1.000000,0.229500,1.000000,0.232700,0.232700,0.232600,0.231800,0.231700,0.231700,1.000000,1.000000,1.000000,1.000000,0.228000,0.227900,0.227900,1.000000,0.230800,0.229100,0.229100,0.229200,0.229300,0.232000,0.230800,0.229200,0.229200,0.229200,0.229300,0.226600,0.226600,0.232000,0.230100,0.229900,0.229500,0.226800,0.225800,0.225500,0.225000,0.224700,0.223600,0.223600,0.224600,0.226100,0.228200,0.228600,0.229700,0.229800,0.226000,0.225000,0.223800,1.000000,1.000000,0.225600,0.224400,0.224000,0.223800,0.223600,0.222500,0.222500,0.222300,0.223600,0.223600,0.223600,0.221600,0.221700,0.221900,0.222200,0.222300,0.220000,0.218500,0.209700,0.208700,0.208600,0.208600,0.208600,0.208500,0.208500,0.208400,0.208200,0.208100,0.207900,0.207800,0.207700,0.207600,0.207500,0.207300,0.207200,0.207000,0.206900,0.206800,0.206700,0.206700,0.206600,0.206500,0.206500,0.205400,0.204800,0.200900,0.198000,1.000000,1.000000,1.000000,1.000000,0.204600,0.204600,0.204500,0.204400,0.204200,0.204000,0.203900,0.203800,0.203700,0.203600,0.203500,0.203500,0.203500,0.203400,0.203400,0.203100,0.203000,0.202900,0.202700,0.202600,0.202300,0.202200,0.202100,0.201900,0.201900,0.201800,0.201700,0.201600,0.201500,0.201400,0.201200,0.201100,0.200900,0.200900,0.200800,0.200600,0.200500,0.200200,0.200100,0.200000,0.199900,0.199800,0.199800,0.199600,0.199500,0.199400,0.199300,0.199200,0.199100,0.199100,0.199100,0.198900,0.198800,0.198600,0.198600,0.198400,0.198300,0.198200,0.198100,0.198000,0.197900,0.197700,0.197600,0.197400,0.197400,0.197300,0.197100,0.197000,0.196700,0.196600,0.196500,0.196400,0.196300,0.196200,0.196200,0.196100,0.196100,0.196000,0.195900,0.195200,0.195000,0.194900,0.194800,0.194700,0.194600,0.194600,0.194500,0.194300,0.194100,0.193900,0.193800,0.193700,0.193700,0.193700,0.193700,0.193700,0.193600,0.193600,0.193700,0.193700,0.203400,0.207100,0.208400,0.208400,0.208300,0.207400,0.207400,0.207500,0.207500,0.209200,0.210400,0.210400,0.208700,0.206900,0.206800,0.206700,0.206700,0.206600,0.206600,0.207800,0.208000,0.208900,0.208800
0.230400,0.230000,0.230100,0.232000,0.234700,0.233800,0.233800,0.233700,0.233800,1.000000,0.233800,0.232700,0.232600,0.232300,0.232200,0.231800,0.231800,0.231900,0.235400,0.235300,0.236200,1.000000,1.000000,1.000000,0.230400,0.230300,0.229400,0.229300,0.229300,0.229300,0.229400,1.000000,1.000000,0.232700,0.232600,0.229700,0.228400,0.228400,0.228400,0.227300,0.226800,0.226100,0.227200,0.227200,0.227800,1.000000,0.226400,0.226300,0.227800,0.227800,0.226400,0.225200,0.224300,0.224300,0.223400,0.222800,0.222700,0.222600,0.224500,0.224700,0.224700,0.224900,0.225000,0.225200,0.225400,0.225400,0.225300,0.224200,0.223200,0.222200,0.222200,0.223600,0.224500,1.000000,0.228200,0.228200,0.228300,0.225000,0.222500,0.222400,0.222400,0.222400,0.222500,0.222600,0.220500,0.220400,1.000000,0.220500,0.220600,0.222000,0.221900,0.221900,0.219900,0.219900,0.219900,0.219900,0.220000,0.218500,0.218400,0.217400,0.209600,0.208800,0.208700,0.208600,0.208600,0.208600,0.208500,0.208400,0.208200,0.208100,0.208000,0.207900,0.207700,0.207700,0.207600,0.207300,0.207200,0.207000,0.206900,0.206800,0.206600,0.206500,0.206400,0.206400,0.206300,0.204700,0.204700,0.203300,0.198000,1.000000,1.000000,1.000000,0.204700,0.204700,0.204600,0.204600,0.204400,0.204200,0.204000,0.203900,0.203800,0.203700,0.203600,0.203500,0.203500,0.203500,0.203500,0.203400,0.203100,0.203000,0.202900,0.202700,0.202700,0.202500,0.202300,0.202200,0.202000,0.202000,0.201800,0.201700,0.201600,0.201500,0.201400,0.201200,0.201100,0.201000,0.201000,0.200900,0.200800,0.200700,0.200300,0.200100,0.200100,0.200000,0.199800,0.199800,0.199600,0.199500,0.199400,0.199300,0.199300,0.199200,0.199200,0.199200,0.198900,0.198800,0.198700,0.198600,0.198500,0.198300,0.198200,0.198100,0.198000,0.197900,0.197700,0.197600,0.197500,0.197400,0.197300,0.197100,0.197000,0.196700,0.196600,0.196500,0.196400,0.196300,0.196300,0.196200,0.196200,0.196100,0.196100,0.196000,0.195900,0.195100,0.194900,0.194800,0.194800,0.194700,0.194700,0.194700,0.194600,0.194300,0.193900,0.193800,0.193700,0.193700,0.193700,0.193700,0.193700,0.193700,0.193800,0.193900,0.194000,0.201400,0.204800,0.204800,0.207100,0.207100,0.205900,0.204000,0.202700,0.204000,0.204000,0.207400,0.207400,0.207000,0.205800,0.204900,0.204800,0.204800,0.204800,0.205400,0.206200,0.206200,1.000000,0.202000
0.227300,0.227300,0.227300,0.228400,0.231200,0.231400,0.231400,0.232100,0.233700,0.233800,0.232000,0.231300,0.231200,0.231100,0.231100,0.227600,0.227600,0.227600,0.229300,0.229200,0.229300,0.229200,1.000000,1.000000,1.000000,1.000000,0.229300,0.227100,0.227000,0.227000,1.000000,0.226300,1.000000,1.000000,0.232600,0.229600,0.228400,0.228400,0.228300,0.225900,0.225800,0.226000,0.226200,0.227100,0.227800,1.000000,1.000000,1.000000,0.226200,0.226300,0.225300,0.223300,0.223200,0.223100,0.221300,0.221200,0.221100,0.221100,0.222100,0.223000,0.223100,0.223100,0.222800,0.222400,0.222400,0.222400,0.222500,0.222400,0.222200,0.219800,0.219700,0.219800,0.219800,1.000000,0.225200,0.223800,0.222600,0.222500,0.222500,0.221000,0.220800,0.219300,0.219200,0.219000,0.217400,0.216200,0.215600,0.215200,0.217400,0.218200,0.218200,0.217100,0.217100,0.217200,0.217800,0.219000,0.218500,0.218500,0.218400,0.215500,0.209300,0.208800,0.208800,0.208800,0.208800,0.208700,0.208600,0.208500,0.208200,0.208200,0.208000,0.208000,0.207800,0.207700,0.207600,0.207400,0.207200,0.207000,0.206900,0.206800,0.206600,0.206500,0.206400,0.206300,0.206200,0.204600,0.204600,0.203200,1.000000,1.000000,1.000000,1.000000,0.204800,0.204800,0.204800,0.204600,0.204500,0.204200,0.204000,0.203900,0.203800,0.203600,0.203600,0.203500,0.203500,0.203500,0.203500,0.203400,0.203200,0.203000,0.202900,0.202800,0.202800,0.202600,0.202400,0.202300,0.202100,0.202000,0.201800,0.201700,0.201500,0.201400,0.201300,0.201200,0.201200,0.201100,0.201100,0.201000,0.200900,0.200800,0.200400,0.200200,0.200100,0.200000,0.199900,0.199800,0.199600,0.199600,0.199500,0.199400,0.199400,0.199400,0.199400,1.000000,1.000000,0.199100,0.198800,0.198700,0.198600,0.198400,0.198300,0.198200,0.198100,0.198000,0.197800,0.197600,0.197500,0.197400,0.197400,0.197200,0.197100,0.196900,0.196700,0.196600,0.196400,0.196400,0.196300,0.196300,0.196200,0.196100,0.196100,0.196000,0.196000,0.195900,0.195000,0.194900,0.194800,0.194800,0.194800,0.194800,0.194800,0.194700,0.193900,0.193800,0.193800,0.193700,0.193700,0.193700,0.193700,0.193800,0.193800,0.194000,0.194000,0.198100,0.199400,0.201400,0.205600,0.205700,0.205800,0.202500,0.202500,0.202500,0.202600,0.204100,0.204200,0.204200,0.203100,0.203000,0.202900,0.202900,0.202900,0.204800,0.206200,1.000000,1.000000,0.202000
0.227200,0.227200,0.227200,0.228400,1.000000,0.229800,0.231100,0.232000,0.232100,0.232100,0.231300,0.231300,0.231200,0.228600,1.000000,0.226500,0.226000,0.226800,0.227600,0.227500,0.227600,0.227500,0.227500,1.000000,1.000000,1.000000,0.222900,0.222700,0.222700,0.222600,0.222600,0.221600,0.226400,1.000000,1.000000,0.228300,0.225300,0.225300,0.225300,0.223600,0.223600,0.223600,0.224800,0.224600,0.223900,0.223800,0.223600,0.223500,0.223300,0.223000,0.220400,0.220300,0.220200,0.220100,0.220000,0.219900,0.219800,0.219700,0.219600,0.219600,0.219600,0.220800,0.220600,0.220500,0.220400,0.220400,0.220300,0.220200,0.220000,0.218200,0.217000,0.217100,0.217100,0.220600,0.220600,0.219400,0.217400,0.217400,0.220600,0.220600,0.219300,0.217100,0.216600,0.216500,0.216200,0.215000,0.215000,0.215100,0.215400,0.215800,0.215900,0.215800,0.215800,0.215800,0.215900,0.218500,0.217400,0.217400,0.217400,0.213700,0.209200,0.209100,0.209000,0.208900,0.208900,0.208800,0.208700,0.208600,0.208200,0.208200,0.208000,0.208000,0.207800,0.207800,0.207700,0.207400,0.207300,0.207100,0.206900,0.206800,0.206600,0.206500,0.206400,0.206200,0.206200,0.205800,0.204600,0.204600,1.000000,1.000000,1.000000,1.000000,0.204800,0.204800,0.204800,0.204700,0.204500,0.204200,0.204000,0.203900,0.203700,0.203600,0.203600,0.203600,0.203500,0.203500,0.203500,0.203500,0.203400,0.203300,0.203200,0.203100,0.203000,0.202900,0.202600,0.202300,0.202100,0.202100,0.201900,0.201700,0.201400,0.201400,0.201300,0.201200,0.201200,0.201200,0.201200,0.201100,0.201000,0.200900,0.200800,0.200600,0.200200,0.200100,0.200000,0.199800,0.199700,0.199700,0.199500,0.199500,0.199400,0.199400,0.199400,1.000000,1.000000,1.000000,0.198900,0.198800,0.198600,0.198400,0.198400,0.198300,0.198200,0.198100,0.197800,0.197700,0.197500,0.197500,0.197400,0.197300,0.197200,0.197000,0.196800,0.196700,0.196500,0.196500,0.196400,0.196300,0.196200,0.196100,0.196100,0.196000,0.196000,0.195900,0.195800,0.195000,0.195000,0.195000,0.195000,0.195000,0.195000,0.194900,0.194400,0.194100,0.193900,0.193800,0.193800,0.193800,0.193800,0.193800,0.193800,0.193900,0.194000,0.198100,0.199400,0.199400,0.203500,0.201700,0.202000,0.201100,0.201100,0.201200,0.201200,0.201200,0.201200,0.200500,0.200400,0.200400,0.202200,0.202200,0.201200,0.201100,1.000000,1.000000,1.000000,0.199600
0.225200,0.225200,0.227200,0.227200,0.228400,0.228100,0.228000,0.228000,0.230300,1.000000,0.230000,0.228700,0.228700,0.224100,0.223000,0.223100,0.223200,0.224200,0.227300,0.227500,0.227500,0.225900,0.224000,0.222600,0.220800,1.000000,0.221500,0.221300,0.220500,0.221300,0.221500,0.221500,0.221600,1.000000,1.000000,1.000000,0.220200,0.220200,0.220200,0.220300,0.220900,0.221000,0.221100,0.221200,0.219200,0.219200,0.219200,0.219600,0.219700,0.219700,0.219700,0.218700,0.218700,0.218600,0.218500,0.218500,0.218500,0.219700,0.219600,0.219600,0.218700,0.218600,0.218500,0.218500,0.216900,0.216200,0.216300,0.216300,0.216800,0.215400,0.213500,0.213400,0.213400,0.215700,0.215700,0.214400,0.212400,0.212500,0.213300,0.213500,0.213500,0.213500,0.213500,0.214700,0.215000,0.215000,0.215000,0.215100,0.215200,0.215300,0.214500,0.214500,0.214500,0.214600,0.214100,0.214100,0.215300,0.215500,0.215500,0.212500,0.209200,0.209200,0.209200,0.209100,0.209000,0.209000,0.208900,0.208800,0.208300,0.208200,0.208100,0.208100,0.208000,0.207900,0.207800,0.207400,0.207300,0.207200,0.207100,0.207000,0.206700,0.206600,0.206400,0.206300,0.206200,0.205700,1.000000,1.000000,1.000000,1.000000,1.000000,1.000000,0.205000,0.205000,0.205000,0.204900,0.204800,0.204100,0.204000,0.203900,0.203800,0.203700,0.203700,0.203600,0.203600,0.203600,0.203500,0.203500,0.203400,0.203400,0.203300,0.203200,0.203200,0.203100,0.203000,0.202200,0.202100,0.202100,0.202000,0.201900,0.201400,0.201300,0.201300,0.201200,0.201200,0.201200,0.201200,0.201200,0.201100,0.201000,0.200800,0.200700,0.200500,0.200200,0.200200,0.200000,0.199800,0.199800,0.199700,0.199600,0.199600,0.199600,0.199600,0.199500,1.000000,1.000000,0.199000,0.199000,0.198900,0.198700,0.198600,0.198500,0.198400,0.198400,0.198100,0.197900,0.197600,0.197600,0.197500,0.197400,0.197300,0.197200,0.197000,0.196900,0.196700,0.196600,0.196500,0.196400,0.196200,0.196100,0.196100,0.195900,0.195900,0.195700,0.195600,0.195200,0.195100,0.195000,0.195100,0.195100,0.195100,0.195000,0.194600,0.194300,0.194000,0.193900,0.193900,0.193800,0.193800,0.193800,0.193800,0.193900,0.193900,0.198200,0.199300,0.199300,0.199500,0.199700,0.199900,0.199800,0.199700,0.199600,0.199400,0.199400,0.199200,0.198900,0.198800,0.198800,0.201400,0.201200,0.201200,0.199400,0.197500,0.197300,0.197300,0.197200
0.223100,0.223200,0.226000,0.226000,1.000000,0.223200,0.223200,1.000000,1.000000,1.000000,1.000000,1.000000,1.000000,1.000000,0.221400,0.221400,0.221500,0.223200,0.226000,0.227400,0.227500,0.225800,0.222600,0.221100,0.220500,1.000000,1.000000,1.000000,0.220400,0.220500,0.220500,0.219000,0.217900,0.218000,0.218000,0.218000,0.216000,0.216000,0.215100,0.215100,0.217200,0.217200,0.217100,0.217000,0.216400,0.216400,0.215500,0.215400,0.215400,0.216600,0.216600,0.216500,0.216400,0.216300,0.215200,0.215200,0.215200,0.215400,0.216900,0.217400,0.216400,0.215500,0.215000,0.215000,0.215000,0.215100,0.215200,0.215300,0.215300,0.213400,0.213400,0.213400,0.213400,0.213400,0.213600,0.212100,0.212200,0.211900,0.211700,0.211400,0.211200,0.211200,0.211100,0.211200,0.211700,0.213400,0.213400,0.215000,0.215100,0.214500,0.214500,0.214500,0.214400,0.214200,0.212600,0.212600,0.212500,0.212500,0.212500,0.209400,0.209300,0.209300,0.209200,0.209200,0.209100,0.209000,0.208900,0.208800,0.208400,0.208300,0.208200,0.208200,0.208100,0.208000,0.207900,0.207400,0.207400,0.207200,0.207100,0.207100,0.206800,0.206700,0.206400,0.206300,0.205900,0.205600,1.000000,1.000000,1.000000,1.000000,1.000000,1.000000,0.205000,0.205000,0.205000,0.205000,0.205000,0.204300,0.204700,0.204000,0.203900,0.203900,0.203900,0.203800,0.203700,0.203700,0.203600,0.203600,0.203600,0.203500,0.203500,0.203400,0.203300,0.203200,0.203200,0.202100,0.202100,0.202100,0.202100,0.202100,0.201800,0.201500,0.201400,0.201400,0.201300,0.201300,0.201200,0.201200,0.201000,0.201000,0.200900,0.200900,0.200900,0.200500,0.200300,0.200100,0.199900,0.199800,0.199700,0.199700,0.199700,0.199600,0.199500,0.199400,0.199300,1.000000,1.000000,1.000000,0.199000,0.198800,0.198700,0.198600,0.198500,0.198400,0.198300,0.198100,0.197700,0.197600,0.197600,0.197500,0.197400,0.197300,0.197200,0.197000,0.196800,0.196700,0.196500,0.196400,0.196200,0.196100,0.196000,0.195900,0.195800,0.195700,0.195600,0.195400,0.195200,0.195200,0.195200,0.195200,0.195100,0.195000,0.194700,0.194500,0.194200,0.194100,0.194000,0.193900,0.193900,0.193900,0.193900,0.193900,0.193900,0.198200,0.198300,0.199100,0.198200,0.197700,0.197700,0.197600,0.196500,0.196600,0.196500,0.196500,0.196600,0.196700,0.196700,0.196600,0.196500,0.196400,0.196500,0.197400,0.197300,0.197300,0.195900,0.195800
0.221600,0.222000,0.223200,0.223300,0.221500,0.221200,0.221100,1.000000,1.000000,1.000000,1.000000,1.000000,1.000000,0.219900,0.220000,0.219900,0.219900,0.220600,1.000000,1.000000,1.000000,1.000000,0.221200,0.219400,0.219300,0.219200,0.219100,1.000000,0.218900,0.218800,0.218800,0.217900,0.217900,0.218000,0.218000,0.218000,0.216000,0.214000,0.214000,0.214000,0.216100,0.217100,0.216800,0.216300,0.215900,0.215600,0.215500,0.215400,0.215300,0.215300,0.215100,0.215000,0.214900,0.214900,0.213800,0.213700,0.213700,0.215000,0.215100,0.216600,0.215300,0.213700,0.213600,0.213600,0.213600,0.213700,0.213900,0.214100,0.214200,0.211800,0.211700,0.211800,0.211800,0.211900,0.212000,0.212000,0.212000,0.211800,0.211700,0.211300,0.211200,0.209400,0.209400,0.209400,0.209500,0.210700,0.211900,0.213500,0.213500,0.212600,0.212600,0.212600,0.212600,0.212600,0.210900,0.210000,0.209900,0.209800,0.209700,0.209400,0.209300,0.209300,0.209200,0.209200,0.209100,0.209000,0.208900,0.208800,0.208500,0.208400,0.208300,0.208200,0.208200,0.208100,0.208100,0.207500,0.207400,0.207200,0.207200,0.207100,0.206900,0.206800,0.206600,0.205600,0.205500,0.203500,1.000000,1.000000,1.000000,1.000000,1.000000,1.000000,0.205100,0.205100,0.205100,0.205100,0.205000,0.204900,0.204800,0.204700,0.204500,0.204300,0.204000,0.203800,0.203800,0.203700,0.203700,0.203600,0.203600,0.203500,0.203500,0.203400,0.203400,0.203300,0.203300,0.202100,0.202100,0.202100,0.202100,0.202100,0.201900,0.201700,0.201600,0.201400,0.201400,0.201300,0.201200,0.201200,0.201000,0.200900,0.200900,0.201000,0.201100,0.201000,0.200600,0.200300,0.200100,0.200000,0.199800,0.199800,0.199800,0.199700,0.199600,0.199400,0.199100,0.199000,1.000000,1.000000,0.199100,0.198900,0.198800,0.198700,0.198600,0.198500,0.198400,0.198300,0.197800,0.197800,0.197700,0.197600,0.197600,0.197400,0.197300,0.197100,0.196900,0.196800,0.196600,0.196500,0.196200,0.196100,0.196000,0.195900,0.195800,0.195600,0.195600,0.195400,0.195200,0.195200,0.195200,0.195200,0.195200,0.195100,0.194700,0.194500,0.194200,0.194100,0.194100,0.194000,0.193900,0.193900,0.193900,0.193800,0.193800,0.198200,0.198300,0.198300,0.197400,0.194800,0.194400,0.196200,0.196500,0.196500,0.195800,0.195600,0.195400,0.195300,0.195100,0.194700,0.194400,0.194400,0.194400,0.196400,0.196300,0.196200,0.194700,0.194700
0.219600,0.219600,0.220500,0.220500,0.221300,0.221200,0.221200,1.000000,0.219500,0.219400,0.219400,0.217600,1.000000,0.215200,0.215100,0.215100,0.215300,0.217000,1.000000,1.000000,1.000000,1.000000,0.217600,0.215400,0.215400,0.215600,0.215600,1.000000,0.215700,0.215600,0.215600,0.215600,0.215800,0.217000,0.217900,0.217900,0.215900,0.213900,0.213900,0.213900,0.215100,0.216200,0.216200,0.215600,0.215000,0.214900,0.214600,0.214500,0.212700,0.212700,0.213000,0.213000,0.213600,0.213700,0.213700,0.213700,0.213600,0.213700,0.214300,0.215100,0.213700,0.212300,0.212100,0.211800,0.211700,0.211700,0.211700,0.211700,0.211800,0.210300,0.210400,0.209000,0.209000,0.208900,0.208700,0.208700,0.208600,0.208500,0.208600,0.208500,0.209500,0.209400,0.209300,0.208800,0.207800,0.207800,0.208000,0.209200,0.209400,0.209500,0.209600,0.208800,0.207800,0.207800,0.207900,0.208600,0.208700,0.207700,0.207700,0.207700,0.209300,0.209300,0.209300,0.209200,0.208200,0.207300,0.207400,0.208700,0.208600,0.208500,0.208400,0.208400,0.208300,0.208200,0.208200,0.207800,0.207300,0.207200,0.207200,0.207100,0.207000,0.206900,0.205400,0.205400,0.205400,0.203400,0.192300,0.189300,1.000000,1.000000,0.144600,1.000000,0.205100,0.205100,0.205100,0.205100,0.205100,0.204900,0.204800,0.204700,0.204400,0.204300,0.204100,0.204000,0.203800,0.203700,0.203600,0.203600,0.203600,0.203600,0.203500,0.203400,0.203400,0.203300,0.202100,0.202000,0.202000,0.202000,0.202100,0.202100,0.201900,0.201700,0.201600,0.201500,0.201400,0.201200,0.201200,0.201000,0.200800,0.200900,0.200900,0.201000,0.201200,0.201100,0.200800,0.200400,0.200200,0.200100,0.200000,0.199900,0.199800,0.199800,0.199700,0.199400,0.199000,0.199000,1.000000,1.000000,0.199300,0.199000,0.198800,0.198700,0.198600,0.198500,0.198400,0.198300,0.198000,0.197900,0.197800,0.197700,0.197700,0.197500,0.197400,0.197300,0.197000,0.196900,0.196600,0.196500,0.196200,0.196100,0.196000,0.195800,0.195700,0.195600,0.195500,0.195400,0.195300,0.195200,0.195200,0.195200,0.195200,0.195000,0.194700,0.194600,0.194300,0.194200,0.194100,0.194000,0.194000,0.193900,0.193800,0.193800,0.193800,0.194700,0.196100,0.196200,0.195000,0.193900,0.194000,0.194000,0.196000,0.196000,0.195700,0.195600,0.194200,0.194200,0.194200,0.194200,0.193100,0.193000,0.193000,0.192900,0.192800,0.192200,0.191600,0.191600
0.219600,0.219600,0.219500,0.219500,0.220800,0.221200,0.221200,1.000000,1.000000,0.219500,0.216600,0.214000,0.214000,0.213900,0.213900,0.213800,0.213800,0.215400,0.215800,0.215900,1.000000,1.000000,0.212500,0.212400,0.212300,0.212300,0.212100,0.212000,0.211900,0.213900,0.214600,0.215500,0.215600,0.215600,0.214900,0.215300,0.214000,0.212200,0.212200,0.213800,0.213700,0.213600,0.212400,0.210200,0.210100,0.210200,0.211500,0.211700,0.211800,0.211800,0.211800,0.210900,0.208900,0.208900,0.209000,0.209800,0.211100,0.211100,0.211200,0.209700,0.209600,0.209400,0.209300,0.209300,0.208800,0.208700,0.208700,0.208700,0.208900,0.209000,0.209000,0.209000,0.208900,0.208400,0.207600,0.207400,0.207400,0.207400,0.207400,0.207400,0.208300,0.208200,0.208000,0.207800,0.207800,0.207800,0.207800,0.207900,0.209400,0.209400,0.208500,0.208400,0.207700,0.207300,0.207100,0.207200,0.207400,0.207500,0.207700,0.207700,0.207700,0.207500,0.207400,0.207200,0.207200,0.207200,0.207200,0.207200,0.207100,0.207100,0.207000,0.207000,0.207000,0.207100,0.207300,0.206500,0.206400,0.205800,0.205700,0.205700,0.205600,0.205500,0.205400,0.204400,0.203100,0.190700,0.189700,1.000000,1.000000,0.144800,0.144700,0.203400,0.203400,0.203400,0.203400,0.203500,0.203900,0.204000,0.204200,0.204400,0.204300,0.204200,0.203800,0.203500,0.203600,0.203600,0.203600,0.203600,0.203600,0.203600,0.203500,0.203400,0.203400,0.202200,0.202000,0.201900,0.201500,0.202000,0.202000,0.202100,0.201800,0.201700,0.201600,0.201400,0.201300,0.201100,0.201000,0.200600,0.199800,0.199800,0.200900,0.201100,0.201100,0.201000,0.199700,0.199900,0.200000,0.200000,0.199900,0.199900,0.199800,0.199800,0.199700,0.198900,0.198800,0.198800,1.000000,1.000000,1.000000,0.199500,0.198500,0.198400,0.198400,0.198300,0.198200,0.198100,0.197900,0.197900,0.197800,0.197800,0.197700,0.197500,0.197400,0.197300,0.196800,0.196800,0.196600,0.196500,0.196100,0.196000,0.195900,0.195800,0.195700,0.195600,0.195500,0.195500,0.195400,0.195300,0.195300,0.195200,0.195200,0.195000,0.194900,0.194600,0.194300,0.194200,0.194100,0.194000,0.193900,0.193800,0.193800,0.193800,0.193800,0.193700,0.194100,0.194900,0.193900,0.193900,0.193900,0.194000,0.194000,0.195800,0.194100,0.194000,0.193400,0.193300,0.193300,0.192700,0.192500,0.191900,0.191300,0.191200,0.188800,0.188800,0.188800,0.190000
0.218200,0.216500,0.215200,0.215300,0.215400,0.218100,1.000000,1.000000,1.000000,0.219300,0.212300,0.212300,0.212300,0.212300,0.212300,0.211300,0.211400,0.211400,0.212900,0.211800,0.210800,0.210800,0.210800,0.212300,0.210800,0.209300,0.207700,0.207700,0.207700,0.207700,0.208400,0.208800,0.210500,0.210400,0.210200,0.210100,0.208600,0.208800,0.208900,0.209000,0.210300,0.210200,0.208400,0.208200,0.207900,0.210000,0.210100,0.210100,0.211200,0.211100,0.210000,0.206600,0.206700,0.206800,0.206800,0.206900,0.208200,0.208200,0.208200,0.208100,0.208000,0.207700,0.207400,0.207200,0.206800,0.206700,0.206600,0.206600,0.207100,0.207600,0.208600,0.209000,0.208000,0.207700,0.207200,0.207000,0.206800,0.206500,0.206400,0.206400,0.206600,0.205200,0.205000,0.205800,0.206100,0.207000,0.207100,0.207800,0.207700,0.207400,0.207300,0.207200,0.206200,0.205100,0.205200,0.205200,0.205200,0.205300,0.206700,0.206600,0.206800,0.206900,0.207100,0.207200,0.207100,0.207000,0.207000,0.207100,0.207100,0.207000,0.206900,0.206900,0.206900,0.206800,0.206400,0.206200,0.206100,0.205600,0.205000,0.204900,0.205500,0.205500,0.204500,0.203300,0.202000,0.190700,1.000000,1.000000,0.146600,0.146600,1.000000,0.203400,0.203400,0.203400,0.203400,0.203400,0.203700,0.203800,0.203700,0.203500,0.203300,0.203300,0.203200,0.202300,0.202200,0.202100,0.202200,0.202400,0.202200,0.202100,0.201900,0.200800,0.200700,0.200800,0.200900,0.200900,0.200800,0.200600,0.200500,0.200600,0.200900,0.201100,0.201100,0.200800,0.200700,0.200500,0.199900,0.199800,0.199700,0.199700,0.199500,0.199100,0.199000,0.199000,0.199300,0.199700,0.199800,0.199800,0.199800,0.199800,0.199700,0.199700,0.199400,0.198800,0.198800,0.198800,0.198800,1.000000,1.000000,1.000000,0.198400,0.198300,0.198200,0.198200,0.198000,0.197900,0.197800,0.197800,0.197800,0.197500,0.196600,0.196300,0.196300,0.196300,0.196300,0.195900,0.195700,0.196000,0.195900,0.195800,0.195800,0.195600,0.195600,0.195400,0.195400,0.195400,0.195300,0.195300,0.195200,0.195200,0.195100,0.194900,0.194800,0.194600,0.194400,0.194300,0.194000,0.193000,0.193000,0.192900,0.193700,0.193700,0.192600,0.192400,0.190900,0.190900,0.191000,0.191000,0.193000,0.193700,0.193800,0.193800,0.193600,0.193500,0.192600,0.191900,0.191300,0.191300,0.191200,0.191200,0.190000,0.190000,0.188400,0.187700,0.187600,0.190000
0.213300,0.211800,0.210800,0.210300,0.210000,0.210300,1.000000,1.000000,1.000000,1.000000,0.211000,0.211000,0.212300,0.212300,0.211000,0.209500,0.209600,0.209600,0.210600,0.210600,0.209500,0.209400,0.209400,0.210800,0.209300,0.207700,0.207700,0.207600,0.207600,0.207600,0.207600,0.208400,0.208700,0.208700,0.208600,0.208500,0.208200,0.207400,0.207500,0.207700,0.208000,0.208100,0.206500,0.206300,0.206200,0.207400,0.207800,0.207800,0.207700,0.207700,0.206200,0.206200,0.206300,0.206500,0.206800,0.206800,0.206200,0.206100,0.206000,0.205900,0.205200,0.204000,0.204200,0.204500,0.204700,0.204600,0.204400,0.204200,0.204200,0.204300,0.204700,0.206900,0.206800,0.206900,0.205400,0.205300,0.205300,0.205200,0.205100,0.204900,0.204800,0.204800,0.204900,0.205000,0.205000,0.205100,0.205200,0.205900,0.205900,0.204800,0.204600,0.204700,0.204700,0.205000,0.205200,0.205200,0.205200,0.205100,0.204700,0.204600,0.204800,0.204900,0.205000,0.205000,0.204700,0.204500,0.204400,0.204400,0.205200,0.206900,0.206800,0.206500,0.205400,0.205400,0.205400,0.205700,0.205400,0.204800,0.204800,0.204800,0.204600,0.204600,0.203400,0.202100,0.200700,0.190700,1.000000,1.000000,0.146600,0.146600,1.000000,0.201500,0.203300,0.203300,0.203400,0.203400,0.203600,0.203600,0.203600,0.203500,0.203200,0.203200,0.202300,0.202200,0.202100,0.201900,0.201700,0.202000,0.202200,0.201900,0.201200,0.200600,0.200600,0.200700,0.200800,0.200800,0.200700,0.200500,0.200300,0.200200,0.200400,0.200900,0.201000,0.200700,0.200600,0.199900,0.199800,0.199700,0.199600,0.199600,0.198600,0.198600,0.198800,0.198900,0.199000,0.199200,0.199600,0.199600,0.199200,0.198700,0.198500,0.198400,0.198000,0.197400,0.197300,0.197000,0.197000,0.196900,0.196800,1.000000,1.000000,0.198100,0.198000,0.197900,0.197700,0.197600,0.196600,0.196600,0.196600,0.196100,0.196100,0.196100,0.196200,0.196200,0.194800,0.194700,0.194700,0.194700,0.194700,0.194800,0.195700,0.195500,0.195500,0.195400,0.195300,0.195300,0.195300,0.195300,0.193700,0.193700,0.193700,0.193600,0.194800,0.194600,0.194400,0.194100,0.193200,0.193000,0.192800,0.192700,0.192700,0.192700,0.192500,0.192100,0.189900,0.189900,0.189900,0.189900,0.191000,0.191000,0.191000,0.191000,0.191000,0.191000,0.191000,0.190000,0.189800,0.188800,0.188700,0.188600,0.188600,0.188400,0.187200,0.186500,0.186500,0.186500
0.210600,0.210400,0.210300,0.209600,0.210000,0.209600,0.209600,0.210500,0.210400,0.210500,0.210400,0.210400,0.211100,0.210800,0.209400,0.208400,0.208500,0.208500,0.208600,0.208800,0.209400,0.209400,0.209400,0.209400,0.207800,0.207700,0.207700,0.207600,0.207600,0.207600,0.207600,0.207600,0.208700,0.208600,0.208500,0.208400,0.207300,0.207100,0.206900,0.206800,0.206800,0.206800,0.206500,0.205300,0.205400,0.206200,0.206200,0.206200,0.205400,0.205200,0.205200,0.205200,0.206200,0.206300,0.206400,0.206600,0.206200,0.206000,0.205800,0.205100,0.203900,0.202400,0.202400,0.202400,0.203600,0.203700,0.204100,0.204100,0.204200,0.203300,0.203200,0.204800,0.204800,0.204800,0.202900,0.202900,0.202800,0.202900,0.203400,0.203600,0.203800,0.204800,0.204800,0.204900,0.203000,0.202800,0.202700,0.204200,0.204200,0.204300,0.204500,0.204600,0.204700,0.204900,0.205100,0.205200,0.205200,0.204000,0.203700,0.203900,0.204700,0.204800,0.204900,0.205000,0.204300,0.204400,0.204400,0.204400,0.204500,0.205100,0.205200,0.205300,0.204600,0.204500,0.204500,0.204600,0.204900,0.204800,0.204800,0.204700,0.204600,0.203400,0.202100,0.202100,0.200700,1.000000,1.000000,1.000000,0.146600,0.146600,1.000000,0.201000,0.201800,0.202100,0.202100,0.202100,0.202100,0.202100,0.202200,0.202400,0.202600,0.202700,0.202200,0.202100,0.201900,0.201700,0.201500,0.201300,0.201700,0.201100,0.200800,0.200600,0.200500,0.200600,0.200700,0.200700,0.200500,0.200300,0.200200,0.200100,0.200000,0.200000,0.200200,0.200600,0.200500,0.199800,0.199700,0.199700,0.199600,0.199500,0.198400,0.198400,0.198700,0.198900,0.198900,0.199000,0.199300,0.199300,0.198600,0.198300,0.198100,0.197900,0.197500,0.196100,0.196100,0.196900,0.196900,0.196800,0.196700,1.000000,1.000000,0.198100,0.197900,0.197800,0.197600,0.196700,0.195600,0.195600,0.195700,0.195800,0.196000,0.196000,0.196100,0.194800,0.194700,0.194700,0.194700,0.194700,0.194700,0.194700,0.195200,0.195400,0.195400,0.195200,0.195200,0.195100,0.195100,0.194900,0.193600,0.193600,0.193600,0.193500,0.193500,0.193400,0.193500,0.193400,0.192700,0.192700,0.192800,0.192700,0.192700,0.192600,0.192000,0.190800,0.189800,0.189800,0.189900,0.189900,0.189800,0.189000,0.189000,0.189000,0.188900,0.189600,0.189900,0.189900,0.189800,0.188800,0.188700,0.187100,0.187400,0.188000,0.186800,0.186400,0.184800,0.184800
0.210400,1.000000,0.209800,0.209500,1.000000,0.209600,0.208400,0.208400,0.208300,1.000000,0.208300,0.209100,0.209200,0.207600,0.207400,0.206000,0.204800,0.204800,0.206500,0.207600,0.208600,0.208300,0.208300,1.000000,0.204500,0.204600,0.206000,0.206100,0.206200,0.206200,0.206200,0.205900,0.205700,0.205600,0.205500,0.205400,0.205300,0.203100,0.203000,0.202900,0.202900,0.203000,0.203300,0.203400,0.203500,0.203500,0.203500,1.000000,0.203500,0.203500,0.203500,0.203500,0.204500,0.204400,0.204300,0.204200,0.204200,0.205200,0.205100,0.203700,0.201500,0.201400,0.201400,0.201400,0.202400,0.203300,0.204000,0.204000,0.203800,0.201400,0.201400,0.202600,0.202800,0.202900,0.200600,0.200600,0.202700,0.202600,0.202500,0.201700,0.201600,0.201600,0.201500,0.201500,0.200900,0.200900,0.201200,0.201400,0.202400,0.202500,0.202700,0.202700,0.202600,0.202600,0.201500,0.201500,0.201500,0.201500,0.201500,0.201900,0.203800,0.204200,0.204300,0.204200,0.204200,0.204300,0.204400,0.204500,0.204500,0.203700,0.203700,0.204500,0.204400,0.204400,0.204000,0.203500,0.203500,0.203400,0.203400,0.203400,0.203300,0.203400,0.202200,0.202200,1.000000,1.000000,1.000000,1.000000,1.000000,0.148100,0.199600,0.200900,0.200700,0.200600,0.200400,0.200100,0.200100,0.200100,0.200500,0.200800,0.200900,0.201100,0.201200,0.202000,0.201500,0.201200,0.200900,0.200600,0.200600,0.200500,0.200500,0.200400,0.200100,0.200100,0.200300,0.200200,0.199900,0.199900,0.199900,0.199900,0.198600,0.198400,0.198200,0.198100,0.198100,0.198100,0.198200,0.198400,0.198300,0.198100,0.198100,0.198100,0.198000,0.197700,0.197300,0.196800,0.197200,0.197600,0.197800,0.198000,0.197800,0.197300,0.196100,0.195100,0.195600,0.195900,0.196700,0.196700,0.196600,0.196600,1.000000,1.000000,0.197900,0.197600,0.196800,0.196400,0.195600,0.195600,0.195600,0.195700,0.195900,0.196000,0.194800,0.194700,0.194600,0.194600,0.194600,0.194600,0.194700,0.194700,0.194700,0.194800,0.195100,0.194900,0.193600,0.193500,0.193500,0.193500,0.193500,0.193500,0.193500,0.193400,0.192900,0.191100,0.191000,0.191000,0.190900,0.190900,0.190900,0.192000,0.192600,0.191700,0.190900,0.189800,0.189700,0.189700,0.189800,0.189000,0.187700,0.186400,0.186200,0.186100,0.185900,0.187600,0.187800,0.187900,0.187200,0.186800,0.186600,0.185700,0.185900,0.186500,0.186400,0.186400,0.184700,0.184700
0.209800,0.209000,0.209400,0.208700,0.207100,0.207100,0.207100,0.206600,0.206200,0.206200,0.207300,0.207300,0.207400,0.207400,0.205700,0.204800,0.204600,0.204500,0.205500,0.206400,0.207600,0.206000,0.204500,0.204500,0.204500,0.204500,0.204500,0.204400,0.204500,0.204500,0.204800,0.204900,0.204700,0.204200,0.203200,0.203100,0.202900,0.202800,0.202700,0.202600,0.202400,0.202200,0.202300,0.202300,0.202100,0.202000,0.201700,0.200800,0.199500,0.199400,0.199400,0.199400,0.199500,0.199500,0.199700,0.200600,0.200700,0.200800,0.200900,0.200400,0.200200,0.200200,0.200200,0.199000,0.199100,0.199100,0.202200,0.202300,0.201200,0.199400,0.199100,0.199200,0.199100,0.199100,0.198900,0.198900,0.200500,0.202400,0.201900,0.200100,0.200000,0.199900,0.199900,0.199900,0.200000,0.200300,0.200500,0.201100,0.201400,0.200500,0.200400,0.200300,0.200100,0.199900,0.199600,0.199500,0.199500,0.199500,0.199600,0.199700,0.202100,0.203900,0.204100,0.204200,0.204200,0.204400,0.204500,0.204600,0.204600,0.202600,0.202500,0.202400,0.202400,0.203700,0.203600,0.203500,0.202600,0.202200,0.202300,0.202400,0.203200,0.203300,0.202200,0.196900,1.000000,1.000000,1.000000,1.000000,1.000000,1.000000,0.199500,0.199600,0.199600,0.199700,0.199700,0.199800,0.200000,0.200000,0.200200,0.200600,0.200800,0.201000,0.201100,0.201800,0.201200,0.200900,0.200600,0.200500,0.200500,0.200400,0.200400,0.200200,0.200000,0.199800,0.199900,0.199900,0.199800,0.199800,0.199800,0.199700,0.198400,0.198300,0.198200,0.196900,0.196900,0.196900,0.196900,0.197100,0.197200,0.197500,0.197700,0.197700,0.197700,0.197500,0.197000,0.196300,0.196200,0.196100,0.197300,0.197500,0.195900,0.195200,0.194800,0.194300,0.194500,0.195600,0.196300,0.196500,0.196500,0.196600,0.196600,1.000000,0.197500,0.197100,0.196300,0.195600,0.195400,0.195400,0.195400,0.195300,0.195200,0.194900,0.194800,0.194700,0.194500,0.194400,0.194400,0.194500,0.194600,0.194600,0.194700,0.194800,0.195000,0.193500,0.193500,0.193500,0.193500,0.193500,0.193400,0.193400,0.193300,0.193000,0.192200,0.191100,0.191000,0.191000,0.190900,0.190900,0.190500,0.190500,0.191700,0.191700,0.191700,0.189700,0.188700,0.188200,0.188100,0.187800,0.187700,0.186300,0.186100,0.185900,0.185300,0.185200,0.186900,0.186900,0.186800,0.186600,0.185200,0.184600,0.184800,0.185900,0.184800,0.184800,0.184700,0.184600
0.201600,0.203100,0.208400,0.207100,0.207100,0.207100,0.206700,0.206400,0.204800,0.203700,0.203600,0.203600,0.205500,0.204600,0.204800,0.204700,0.203700,0.203700,0.203900,0.203800,0.203800,0.203800,0.202500,0.202300,0.201500,0.201400,0.201300,0.201300,0.201300,0.201400,0.203100,0.203100,0.203200,0.201500,0.199900,0.199900,0.199800,0.201600,0.202000,0.201800,0.201100,0.199500,0.199500,0.199500,0.199400,0.199400,0.199400,0.199500,0.199500,0.199400,0.199400,0.199400,0.198300,0.198300,0.198400,0.199700,0.200600,0.200800,0.199600,0.198700,0.198600,0.198800,0.198900,0.197300,0.197200,0.197200,0.200800,0.201000,0.199900,0.199000,0.198700,0.198300,0.198000,0.197900,0.197900,0.198100,0.200500,0.200300,0.200200,0.199300,0.198900,0.197900,0.197700,0.196300,0.196200,0.197900,0.197900,0.199100,0.199100,0.196000,0.195200,0.195200,0.195200,0.196000,0.196700,0.197000,0.197000,0.196900,0.196600,0.196300,0.197700,0.199400,0.199500,0.200600,0.201700,0.204000,0.204700,0.204700,0.204800,0.202600,0.202500,0.202300,0.202200,0.202100,0.202100,0.202200,0.202200,0.202200,0.202200,0.202200,0.203100,0.203200,0.200300,0.200300,1.000000,1.000000,1.000000,1.000000,1.000000,0.199400,0.199500,0.199500,0.199600,0.199600,0.199700,0.199700,0.199800,0.199900,0.200100,0.200500,0.200600,0.200900,0.199500,0.199600,0.199700,0.200200,0.200400,0.200400,0.200400,0.198700,0.198600,0.198600,0.198700,0.198500,0.198500,0.198500,0.199700,0.199600,0.198400,0.198400,0.198400,0.198300,0.198200,0.196900,0.196900,0.196900,0.196900,0.197000,0.197100,0.197300,0.197400,0.197400,0.197400,0.196900,0.196300,0.196100,0.196100,0.196100,0.196100,0.196200,0.195600,0.194800,0.194500,0.193700,0.193800,0.194500,0.196200,0.196500,0.196500,0.196600,0.196700,1.000000,1.000000,1.000000,1.000000,0.195600,0.195400,0.195300,0.195300,0.195200,0.195100,0.194800,0.194800,0.194700,0.194400,0.194300,0.193800,0.193700,0.193600,0.194600,0.194400,0.193100,0.193100,0.192700,0.192600,0.192400,0.192200,0.192200,0.192200,0.193100,0.193000,0.192300,0.191600,0.191100,0.191000,0.191000,0.189800,0.189800,0.188700,0.190200,0.190300,0.190200,0.189900,0.187200,0.185800,0.184600,0.184500,0.185000,0.185600,0.185700,0.185500,0.183300,0.183200,0.183200,0.183300,0.185300,0.185200,0.184800,0.184100,0.183000,0.183000,0.182900,0.182900,0.182900,0.182900,0.183000
0.199800,0.199800,0.203000,0.204600,0.204600,0.204500,0.204500,0.204100,0.202800,0.202600,0.202100,0.202100,0.202300,0.202400,0.202900,0.203100,0.201700,0.201700,0.201800,0.201900,0.202000,0.202100,0.201900,0.201600,0.201400,0.201400,0.199900,0.200000,0.200100,0.201200,0.201300,0.201200,0.201300,0.199700,0.199100,0.199000,0.199200,0.201300,0.201300,0.201100,0.200900,0.199500,0.198000,0.198000,0.197900,0.197900,0.197900,0.199500,0.199500,0.199400,0.198200,0.198300,0.198200,0.197500,0.197500,0.197700,0.197800,0.198200,0.198300,0.198300,0.198300,0.196100,0.195600,0.194300,0.194300,0.194700,0.195400,0.196800,0.196800,0.194700,0.194500,0.194500,0.196300,0.196200,0.195900,0.195900,0.195800,0.195900,0.196000,0.196000,0.195900,0.196000,0.194600,0.194500,0.194500,0.196000,0.196000,0.196000,0.196000,0.194200,0.194100,0.194100,0.194000,0.195300,0.195700,0.196900,0.196900,0.196700,0.195200,0.195100,0.196200,0.197700,0.199500,0.199500,0.200500,0.202000,0.203800,0.202600,0.202600,0.202500,0.202400,0.202100,0.202100,0.202000,0.202000,0.202000,0.202000,0.202000,0.202100,0.202100,0.202100,0.200300,0.192600,0.192500,1.000000,1.000000,1.000000,1.000000,1.000000,0.196400,0.198900,0.198800,0.196400,0.195300,0.195300,0.195400,0.198100,0.199400,0.199900,0.200300,0.199800,0.199600,0.197600,0.197600,0.197600,0.198800,0.199000,0.199000,0.199000,0.198500,0.198100,0.197800,0.197900,0.198200,0.198400,0.198400,0.198500,0.198400,0.198300,0.198300,0.198400,0.198400,0.198300,0.197000,0.196900,0.196900,0.197000,0.197000,0.197100,0.197300,0.197300,0.197300,0.197300,0.196500,0.196200,0.196000,0.195900,0.196000,0.194600,0.194600,0.194500,0.194400,0.193600,0.193600,0.193600,0.193600,0.195800,0.196600,0.196600,0.196600,0.196600,0.196600,0.195900,1.000000,1.000000,1.000000,0.195400,0.195300,0.195200,0.195000,0.194900,0.194800,0.194700,0.194600,0.194000,0.193900,0.193700,0.193600,0.193400,0.193300,0.193200,0.193100,0.193000,0.192700,0.192500,0.192400,0.192200,0.192000,0.192000,0.192200,0.192600,0.192300,0.192100,0.191000,0.191000,0.191000,0.189700,0.188800,0.188700,0.188700,0.190000,0.189900,0.188700,0.184700,0.184600,0.184500,0.183900,0.183800,0.183500,0.183400,0.183200,0.183200,0.182000,0.182100,0.182100,0.183500,0.183500,0.183400,0.183300,0.183000,0.183000,0.182900,0.182900,0.181000,0.181000,0.181000
0.199800,0.199800,0.200900,0.202600,0.202500,0.201600,0.201600,0.201600,0.201600,0.201700,0.201800,0.201800,0.201700,0.201200,0.200900,0.200600,0.200300,0.200200,0.200100,0.200100,0.200200,0.200100,0.200000,0.199900,0.199800,0.199900,0.198900,0.198900,0.198800,0.198700,0.198600,0.198400,0.198400,0.198300,0.198300,0.198300,0.198700,0.199400,0.199400,0.199400,0.199500,0.198100,0.198000,0.198000,0.196400,0.196400,0.196500,0.196600,0.197100,0.198000,0.198200,0.196900,0.197100,0.197200,0.197100,0.195100,0.195000,0.195000,0.196100,0.196100,0.196100,0.194700,0.194200,0.194200,0.194300,0.194300,0.194500,0.195100,0.194900,0.192700,0.192700,0.192700,0.194200,0.194300,0.191800,0.191800,0.191800,0.193900,0.194800,0.194800,0.194900,0.194800,0.193900,0.193800,0.193800,0.194000,0.194000,0.194000,0.194100,0.194100,0.194100,0.194100,0.193900,0.193800,0.193900,0.195600,0.195500,0.195200,0.193400,0.193300,0.195100,0.196200,0.197600,0.199500,0.199600,0.200700,0.201200,0.202600,0.202600,0.201300,0.201600,0.202000,0.202000,0.201900,0.201900,0.201900,0.201900,0.202000,0.202000,0.202100,0.197400,0.196400,0.192600,0.192500,1.000000,1.000000,1.000000,1.000000,1.000000,0.196400,0.196400,0.196500,0.195000,0.192800,0.193000,0.193000,0.196400,0.198100,0.199900,0.200000,0.199600,0.199500,0.197600,0.197600,0.197600,0.197600,0.198900,0.199000,0.198900,0.198300,0.197600,0.197600,0.197600,0.197600,0.197300,0.197200,0.197000,0.196900,0.196900,0.198300,0.198400,0.198400,0.198400,0.197700,0.197300,0.197000,0.197000,0.197100,0.197100,0.197200,0.197200,0.197200,0.197100,0.196300,0.196000,0.195900,0.195900,0.196000,0.194600,0.194600,0.194500,0.194400,0.193500,0.193500,0.193600,0.193600,0.194900,0.195500,0.196600,0.196600,0.196600,0.196200,0.195600,0.195600,1.000000,1.000000,0.195400,0.195300,0.195200,0.195000,0.194900,0.194800,0.194700,0.194100,0.193900,0.193800,0.193600,0.193500,0.193300,0.193200,0.193200,0.193000,0.192900,0.192600,0.192500,0.192400,0.192100,0.192000,0.192000,0.192000,0.192300,0.192200,0.192200,0.191100,0.191000,0.191000,0.189600,0.188800,0.187600,0.187600,0.188600,0.188600,0.187100,0.184700,0.184300,0.184000,0.183800,0.183800,0.182000,0.181900,0.181800,0.181800,0.181100,0.181000,0.181100,0.181200,0.181300,0.181400,0.181300,0.181300,0.182700,0.182800,0.180900,0.180400,0.179800,0.181000
0.199800,0.199800,0.199900,0.200700,0.200600,0.199400,0.199200,0.199100,0.199100,0.199300,0.199500,0.201600,0.201500,0.200500,0.199400,0.199000,0.198800,0.198700,0.198600,0.198400,0.197000,0.197000,0.197000,0.198400,0.198500,0.198800,0.198900,0.198800,0.198100,0.197200,0.196400,0.196400,0.196300,0.196100,0.195300,0.195200,0.195800,0.195900,0.195900,0.195900,0.197300,0.197200,0.195400,0.193500,0.193500,0.193600,0.193800,0.194000,0.194000,0.194000,0.194000,0.194300,0.195200,0.195200,0.194300,0.193700,0.193600,0.193700,0.193800,0.193800,0.194500,0.194200,0.194200,0.194200,0.194300,0.194200,0.194000,0.193700,0.192600,0.192600,0.192600,0.192600,0.192600,0.191600,0.190200,0.190200,0.190700,0.190700,0.192800,0.192800,0.194300,0.194100,0.192300,0.192000,0.192000,0.193900,0.193800,0.194000,0.194000,0.194000,0.193600,0.193300,0.191500,0.191400,0.191400,0.192500,0.192600,0.192700,0.193000,0.193100,0.194200,0.194700,0.196200,0.199500,0.199600,0.200300,0.200400,0.201100,0.201200,0.200200,0.200300,0.200500,0.201900,0.201900,0.201900,0.201900,0.201900,0.201900,0.201900,0.198700,0.196300,0.192800,0.191700,0.191500,1.000000,0.189700,1.000000,0.144200,1.000000,0.193800,0.194800,0.194900,0.192800,0.190600,0.190600,0.190500,0.195400,0.196400,0.199800,0.199800,0.199600,0.199400,0.197600,0.197600,0.197600,0.197700,0.197700,0.198400,0.198300,0.197400,0.197400,0.197400,0.197400,0.197400,0.197300,0.197200,0.196700,0.196400,0.196600,0.197000,0.198400,0.198500,0.198400,0.198100,0.197500,0.197100,0.197100,0.197100,0.197100,0.197200,0.197100,0.197000,0.195700,0.195700,0.195800,0.195800,0.194600,0.194500,0.194500,0.194500,0.194500,0.194400,0.194400,0.193600,0.193600,0.193700,0.194800,0.194800,0.195100,0.195100,0.195100,0.195300,0.195600,0.195600,1.000000,1.000000,0.195600,0.195300,0.195200,0.195100,0.194800,0.194800,0.194100,0.193900,0.193800,0.193800,0.193600,0.193500,0.193300,0.193200,0.193000,0.192900,0.192800,0.192400,0.192200,0.192100,0.191800,0.191800,0.191800,0.191900,0.192000,0.192100,0.191200,0.189700,0.189500,0.189500,0.189400,0.189100,0.187500,0.187100,0.186000,0.184500,0.183900,0.182400,0.182300,0.182400,0.180700,0.178800,0.178800,0.179000,0.179800,0.180100,0.180000,0.180000,0.179900,0.179900,0.179800,0.179100,0.179000,0.179000,0.180300,0.180400,0.179200,0.178900,0.178700,0.178800
0.196900,0.196600,0.196300,0.196100,0.195900,0.195400,0.195200,0.196800,0.198400,0.198300,0.198100,0.198000,0.197900,0.197800,0.197800,0.197800,0.197800,0.197600,0.197400,0.196900,0.196000,0.196000,0.196100,0.196400,0.196500,0.196600,0.196500,0.196400,0.196300,0.196200,0.195800,0.195200,0.193700,0.193600,0.193500,0.193500,0.194700,0.194700,0.194800,0.194700,0.194700,0.194600,0.193500,0.192200,0.192100,0.192100,0.193700,0.194000,0.194000,0.194000,0.193900,0.193600,0.193400,0.193000,0.192800,0.192700,0.192600,0.193600,0.193700,0.193800,0.193900,0.193300,0.193300,0.193200,0.193200,0.191900,0.191000,0.191000,0.191100,0.192300,0.192500,0.192500,0.190100,0.190000,0.190000,0.190000,0.190200,0.190500,0.190700,0.190700,0.191500,0.191600,0.191600,0.190200,0.190000,0.190200,0.192000,0.192000,0.192000,0.189000,0.188900,0.189000,0.189000,0.189100,0.189200,0.190500,0.191600,0.192200,0.192700,0.192800,0.193000,0.194600,0.196100,0.199800,0.200100,0.200200,0.200200,0.200400,0.200100,0.197300,0.197400,0.198000,0.198400,0.200500,0.201800,0.201800,0.201800,0.201800,0.200200,0.198700,0.192800,0.191700,0.189800,0.188900,0.187900,0.187000,0.144200,0.145600,0.187500,0.188800,0.191000,0.192700,0.189000,0.189100,0.189100,0.189200,0.190400,0.192500,0.198100,0.199600,0.199500,0.199400,0.199200,0.199100,0.197700,0.197700,0.197700,0.197700,0.197600,0.197300,0.197300,0.197300,0.197400,0.197400,0.197300,0.197200,0.196400,0.196300,0.196300,0.197700,0.198700,0.198600,0.198600,0.197700,0.197400,0.197200,0.197100,0.197100,0.197100,0.197100,0.197100,0.195700,0.195700,0.195700,0.195700,0.194600,0.194500,0.194200,0.193700,0.194200,0.194400,0.194400,0.194300,0.193700,0.193700,0.193800,0.193800,0.193800,0.194700,0.195000,0.195100,0.195100,0.195100,0.195200,1.000000,0.196100,1.000000,0.195300,0.195200,0.195100,0.193500,0.193400,0.193200,0.193100,0.193000,0.193000,0.193500,0.193400,0.193200,0.193000,0.193000,0.192800,0.192700,0.192200,0.192100,0.191900,0.191700,0.191700,0.191700,0.191800,0.192000,0.191300,0.191100,0.189600,0.189500,0.189500,0.189300,0.189300,0.187300,0.186000,0.184500,0.183900,0.182800,0.181400,0.180900,0.180800,0.178900,0.178600,0.178400,0.178600,0.178900,0.178800,0.178700,0.178500,0.178700,0.178800,0.178900,0.179000,0.179000,0.179000,0.179100,0.179200,0.177700,0.177700,0.177700,0.178000
