1.000000,1.000000,1.000000,1.000000,1.000000,1.000000,1.000000,1.000000,1.000000,1.000000,1.000000,1.000000,1.000000,1.000000,1.000000,1.000000,1.000000,1.000000,1.000000,1.000000,1.000000,1.000000,1.000000,1.000000,1.000000,1.000000,1.000000,1.000000,1.000000,1.000000,0.178400,0.178400,0.178400,0.178400,0.178400,0.178300,0.178200,0.178100,0.178100,0.178000,0.178000,0.178100,0.178200,0.178200,0.178200,0.178100,0.178000,0.178000,0.177900,0.177800,0.177700,0.177500,0.177400,0.177200,0.177100,0.177100,0.177000,0.177000,0.176800,0.176700,0.176500,0.176500,0.176500,0.176500,0.176600,0.175900,0.175800,0.175800,0.175800,0.175800,0.175800,0.175800,0.175700,0.175700,0.175600,0.175500,0.175500,0.175400,0.175500,0.175500,0.175500,0.175500,0.175200,0.175100,0.175000,0.175000,0.175000,0.175000,0.175000,0.174900,0.174900,0.174800,0.174700,0.174700,0.174500,0.174400,0.174400,0.174400,0.174400,0.174300,0.174200,0.174000,0.173900,0.173700,0.173600,0.173400,0.173400,0.173300,0.173200,0.173200,0.173200,0.173200,0.173200,0.173200,0.173100,0.173000,0.172900,0.172800,0.172700,0.172600,0.172400,0.172400,0.172300,0.172300,0.172300,0.172400,0.172400,0.172400,0.172300,0.172300,0.172200,0.172100,0.171900,0.171800,0.171700,0.171600,0.171500,0.171400,0.171400,0.171400,0.171400,0.171400,0.171400,0.171300,0.171300,0.171200,0.171100,0.171000,0.170800,0.170700,0.170600,0.170400,0.170400,0.170300,0.170300,0.170300,0.170200,0.170100,0.170100,0.170100,0.170000,0.170000,0.169900,0.169800,0.169800,0.169700,0.169700,0.169600,0.169500,0.169500,0.169300,0.169200,0.169100,0.169000,0.169000,0.169000,0.169000,0.169100,0.169200,0.169500,0.170000,1.000000,1.000000,1.000000,1.000000,1.000000,1.000000,1.000000,1.000000,1.000000,1.000000,1.000000,1.000000,1.000000,1.000000,1.000000,1.000000,1.000000,1.000000,1.000000,1.000000,1.000000,1.000000,1.000000,1.000000,1.000000,1.000000,1.000000,1.000000,1.000000,1.000000,1.000000,1.000000,1.000000,1.000000,1.000000,1.000000,1.000000,1.000000,1.000000,1.000000,1.000000,1.000000,1.000000,1.000000,1.000000,1.000000,1.000000,1.000000,0.476000,0.475900,1.000000,1.000000,1.000000,1.000000,1.000000,1.000000,1.000000,1.000000,1.000000,1.000000,1.000000,1.000000,1.000000,1.000000,1.000000,1.000000,1.000000,1.000000,1.000000,1.000000,1.000000,1.000000,1.000000,1.000000,1.000000
1.000000,1.000000,1.000000,1.000000,1.000000,1.000000,1.000000,1.000000,1.000000,1.000000,1.000000,1.000000,1.000000,1.000000,1.000000,1.000000,1.000000,1.000000,1.000000,1.000000,1.000000,1.000000,1.000000,1.000000,1.000000,1.000000,1.000000,1.000000,1.000000,1.000000,0.178400,0.178400,0.178400,0.178400,0.178400,0.178300,0.178200,0.178200,0.178100,0.178000,0.178000,0.178000,0.178100,0.178100,0.178100,0.178100,0.178000,0.177900,0.177800,0.177800,0.177700,0.177500,0.177400,0.177100,0.177100,0.177000,0.177000,0.177000,0.176800,0.176700,0.176500,0.176500,0.176500,0.176600,0.176600,0.176700,0.175800,0.175800,0.175800,0.175800,0.175700,0.175700,0.175700,0.175700,0.175600,0.175500,0.175500,0.175500,0.175500,0.175400,0.175400,0.175400,0.175100,0.175000,0.175000,0.175000,0.175000,0.175000,0.175000,0.174900,0.174900,0.174900,0.174800,0.174800,0.174600,0.174500,0.174500,0.174500,0.174500,0.174400,0.174300,0.174000,0.173900,0.173700,0.173600,0.173400,0.173400,0.173300,0.173200,0.173200,0.173200,0.173200,0.173200,0.173100,0.173100,0.173000,0.172900,0.172900,0.172800,0.172700,0.172500,0.172400,0.172400,0.172400,0.172400,0.172400,0.172400,0.172400,0.172300,0.172300,0.172100,0.172000,0.171900,0.171800,0.171700,0.171500,0.171400,0.171400,0.171300,0.171300,0.171400,0.171400,0.171400,0.171300,0.171300,0.171200,0.171100,0.171000,0.170800,0.170600,0.170500,0.170400,0.170400,0.170300,0.170300,0.170200,0.170200,0.170100,0.170100,0.170100,0.170000,0.170000,0.169900,0.169800,0.169800,0.169700,0.169600,0.169600,0.169500,0.169400,0.169200,0.169100,0.169100,0.169000,0.169000,0.169000,0.169000,0.169100,0.169200,0.169300,0.169700,1.000000,1.000000,1.000000,1.000000,1.000000,1.000000,1.000000,1.000000,1.000000,1.000000,1.000000,1.000000,1.000000,1.000000,1.000000,1.000000,1.000000,1.000000,1.000000,1.000000,1.000000,1.000000,1.000000,1.000000,1.000000,1.000000,1.000000,1.000000,1.000000,1.000000,1.000000,1.000000,1.000000,1.000000,1.000000,1.000000,1.000000,1.000000,1.000000,1.000000,1.000000,1.000000,1.000000,1.000000,1.000000,1.000000,1.000000,1.000000,0.475900,0.475900,1.000000,1.000000,1.000000,1.000000,1.000000,1.000000,1.000000,1.000000,1.000000,1.000000,1.000000,1.000000,0.465000,1.000000,1.000000,1.000000,1.000000,1.000000,1.000000,1.000000,1.000000,1.000000,1.000000,1.000000,1.000000
1.000000,1.000000,1.000000,1.000000,1.000000,1.000000,1.000000,1.000000,1.000000,1.000000,1.000000,1.000000,1.000000,1.000000,1.000000,1.000000,1.000000,1.000000,1.000000,1.000000,1.000000,1.000000,1.000000,1.000000,0.318100,0.318000,0.317900,0.317800,1.000000,1.000000,0.178500,0.178400,0.178400,0.178400,0.178400,0.178300,0.178200,0.178200,0.178100,0.178000,0.178000,0.178000,0.178000,0.178100,0.178000,0.178000,0.177900,0.177900,0.177800,0.177700,0.177600,0.177400,0.177200,0.177100,0.177000,0.177000,0.177000,0.176900,0.176800,0.176700,0.176600,0.176500,0.176500,0.176600,0.176600,0.176700,0.176700,0.175800,0.175800,0.175800,0.175800,0.175700,0.175700,0.175600,0.175600,0.175500,0.175500,0.175400,0.175400,0.175400,0.175300,0.175200,0.175000,0.175000,0.174900,0.174900,0.175000,0.175000,0.174900,0.174900,0.174900,0.174900,0.174900,0.174900,0.174800,0.174700,0.174600,0.174600,0.174500,0.174400,0.174300,0.174000,0.173900,0.173600,0.173600,0.173400,0.173400,0.173400,0.173400,0.173400,0.173300,0.173300,0.173100,0.173000,0.172900,0.172900,0.173000,0.172900,0.172900,0.172800,0.172500,0.172400,0.172400,0.172400,0.172400,0.172400,0.172400,0.172400,0.172300,0.172200,0.171900,0.171800,0.171700,0.171600,0.171600,0.171400,0.171400,0.171300,0.171300,0.171300,0.171300,0.171400,0.171400,0.171300,0.171200,0.171200,0.171000,0.170900,0.170700,0.170600,0.170500,0.170400,0.170300,0.170300,0.170200,0.170200,0.170100,0.170100,0.170100,0.170100,0.170000,0.170000,0.169900,0.169800,0.169800,0.169700,0.169600,0.169600,0.169400,0.169300,0.169200,0.169100,0.169000,0.169000,0.169000,0.169000,0.169000,0.169000,0.169100,0.169200,0.169300,1.000000,1.000000,1.000000,1.000000,1.000000,1.000000,1.000000,1.000000,1.000000,1.000000,1.000000,1.000000,1.000000,1.000000,1.000000,1.000000,1.000000,1.000000,1.000000,1.000000,1.000000,1.000000,1.000000,1.000000,1.000000,1.000000,1.000000,1.000000,1.000000,1.000000,1.000000,1.000000,1.000000,1.000000,1.000000,1.000000,1.000000,1.000000,1.000000,1.000000,1.000000,1.000000,1.000000,1.000000,1.000000,1.000000,1.000000,1.000000,1.000000,1.000000,1.000000,1.000000,1.000000,1.000000,1.000000,1.000000,1.000000,1.000000,1.000000,1.000000,1.000000,1.000000,1.000000,1.000000,1.000000,1.000000,1.000000,1.000000,1.000000,1.000000,1.000000,1.000000,1.000000,1.000000,1.000000
1.000000,1.000000,1.000000,1.000000,1.000000,1.000000,1.000000,1.000000,1.000000,1.000000,1.000000,1.000000,1.000000,1.000000,1.000000,1.000000,1.000000,1.000000,1.000000,1.000000,1.000000,1.000000,0.318200,0.318200,0.318100,0.318000,0.317800,0.317800,0.317800,1.000000,0.178500,0.178500,0.178400,0.178400,0.178300,0.178300,0.178200,0.178100,0.178000,0.177900,0.177900,0.177900,0.178000,0.178000,0.178000,0.178000,0.177900,0.177800,0.177700,0.177700,0.177600,0.177300,0.177200,0.177100,0.177000,0.177000,0.177000,0.176900,0.176800,0.176700,0.176600,0.176600,0.176500,0.176600,0.176600,0.176600,0.176600,0.176200,0.176000,0.175900,0.175900,0.175800,0.175700,0.175700,0.175600,0.175500,0.175500,0.175400,0.175300,0.175200,0.175200,0.175100,0.175000,0.174900,0.174900,0.174900,0.174900,0.174900,0.174900,0.174800,0.174800,0.174800,0.174800,0.174900,0.174800,0.174700,0.174600,0.174500,0.174500,0.174400,0.174300,0.173900,0.173800,0.173700,0.173600,0.173500,0.173500,0.173500,0.173500,0.173500,0.173400,0.173400,0.173000,0.173000,0.172900,0.172900,0.173000,0.173000,0.173000,0.173100,0.172900,0.172600,0.172400,0.172400,0.172400,0.172400,0.172300,0.172300,0.172200,0.172000,0.171700,0.171700,0.171600,0.171600,0.171600,0.171400,0.171300,0.171200,0.171200,0.171200,0.171300,0.171300,0.171300,0.171300,0.171200,0.171100,0.170900,0.170700,0.170600,0.170500,0.170500,0.170300,0.170300,0.170200,0.170100,0.170100,0.170100,0.170100,0.170100,0.170100,0.170100,0.170000,0.170000,0.169900,0.169800,0.169700,0.169600,0.169500,0.169300,0.169200,0.169200,0.169100,0.169000,0.169000,0.169000,0.169000,0.169000,0.169000,0.169000,0.169100,0.169100,1.000000,1.000000,1.000000,1.000000,1.000000,1.000000,1.000000,1.000000,1.000000,1.000000,1.000000,1.000000,1.000000,1.000000,1.000000,1.000000,1.000000,1.000000,1.000000,1.000000,1.000000,1.000000,1.000000,1.000000,1.000000,1.000000,1.000000,1.000000,1.000000,1.000000,1.000000,1.000000,1.000000,1.000000,1.000000,1.000000,1.000000,1.000000,1.000000,1.000000,1.000000,1.000000,1.000000,1.000000,1.000000,1.000000,1.000000,1.000000,1.000000,1.000000,1.000000,1.000000,1.000000,1.000000,1.000000,1.000000,1.000000,1.000000,1.000000,1.000000,1.000000,1.000000,1.000000,1.000000,1.000000,1.000000,1.000000,1.000000,1.000000,1.000000,1.000000,1.000000,1.000000,1.000000,1.000000
1.000000,1.000000,1.000000,1.000000,1.000000,1.000000,1.000000,1.000000,1.000000,1.000000,1.000000,1.000000,1.000000,1.000000,1.000000,1.000000,1.000000,1.000000,1.000000,1.000000,1.000000,0.318200,0.318200,0.318200,0.318100,0.318000,0.317800,0.317700,0.317700,1.000000,0.178600,0.178500,0.178400,0.178400,0.178300,0.178200,0.178100,0.178000,0.178000,0.177900,0.177900,0.177900,0.178000,0.178000,0.178000,0.177900,0.177800,0.177700,0.177600,0.177600,0.177500,0.177200,0.177100,0.177000,0.177000,0.177000,0.176900,0.176900,0.176800,0.176800,0.176700,0.176600,0.176500,0.176500,0.176500,0.176600,0.176500,0.176400,0.176200,0.176000,0.176000,0.175900,0.175800,0.175700,0.175600,0.175500,0.175500,0.175300,0.175200,0.175200,0.175100,0.175100,0.175000,0.174900,0.174900,0.174900,0.174900,0.174800,0.174800,0.174800,0.174800,0.174800,0.174800,0.174800,0.174800,0.174700,0.174500,0.174400,0.174400,0.174300,0.174200,0.173900,0.173800,0.173700,0.173600,0.173600,0.173600,0.173600,0.173600,0.173600,0.173500,0.173400,0.173000,0.172900,0.172800,0.172800,0.172900,0.173000,0.173000,0.173000,0.172900,0.172700,0.172400,0.172300,0.172300,0.172200,0.172100,0.171900,0.171700,0.171600,0.171500,0.171500,0.171600,0.171600,0.171500,0.171400,0.171300,0.171200,0.171200,0.171200,0.171200,0.171200,0.171200,0.171100,0.171000,0.170900,0.170800,0.170600,0.170500,0.170400,0.170400,0.170300,0.170300,0.170100,0.170100,0.170100,0.170100,0.170100,0.170200,0.170200,0.170100,0.170100,0.170100,0.170000,0.169900,0.169700,0.169600,0.169400,0.169300,0.169200,0.169200,0.169200,0.169100,0.169000,0.169000,0.169000,0.169000,0.169000,0.169000,0.169100,0.169100,1.000000,1.000000,1.000000,1.000000,1.000000,1.000000,1.000000,1.000000,1.000000,1.000000,1.000000,1.000000,1.000000,1.000000,1.000000,1.000000,1.000000,1.000000,1.000000,1.000000,1.000000,1.000000,1.000000,1.000000,1.000000,1.000000,1.000000,1.000000,1.000000,1.000000,1.000000,1.000000,1.000000,1.000000,1.000000,1.000000,1.000000,1.000000,1.000000,1.000000,1.000000,1.000000,1.000000,1.000000,1.000000,1.000000,1.000000,1.000000,1.000000,1.000000,1.000000,1.000000,1.000000,1.000000,1.000000,1.000000,1.000000,1.000000,1.000000,1.000000,1.000000,1.000000,1.000000,1.000000,1.000000,1.000000,1.000000,1.000000,1.000000,1.000000,1.000000,1.000000,1.000000,1.000000,1.000000
1.000000,1.000000,1.000000,1.000000,1.000000,1.000000,1.000000,1.000000,1.000000,1.000000,1.000000,1.000000,1.000000,1.000000,1.000000,1.000000,1.000000,1.000000,1.000000,1.000000,1.000000,0.318200,0.318200,0.318200,0.318100,0.318000,0.317800,0.317700,0.317700,1.000000,0.178600,0.178500,0.178400,0.178300,0.178200,0.178100,0.178000,0.177900,0.177900,0.177900,0.177900,0.177900,0.178000,0.178000,0.178000,0.177900,0.177700,0.177700,0.177600,0.177500,0.177400,0.177100,0.177000,0.177000,0.177000,0.177000,0.176900,0.176900,0.176800,0.176800,0.176700,0.176600,0.176500,0.176500,0.176500,0.176500,0.176500,0.176300,0.176200,0.176100,0.176000,0.176000,0.175900,0.175800,0.175700,0.175600,0.175500,0.175300,0.175200,0.175100,0.175100,0.175100,0.174900,0.174900,0.174800,0.174800,0.174800,0.174800,0.174700,0.174700,0.174700,0.174700,0.174700,0.174700,0.174700,0.174600,0.174400,0.174300,0.174300,0.174100,0.174000,0.173800,0.173700,0.173700,0.173600,0.173600,0.173600,0.173600,0.173600,0.173600,0.173400,0.173200,0.172900,0.172900,0.172800,0.172800,0.172900,0.172900,0.172900,0.173000,0.172800,0.172500,0.172300,0.172300,0.172200,0.172100,0.172000,0.171800,0.171600,0.171600,0.171500,0.171500,0.171500,0.171500,0.171500,0.171400,0.171400,0.171200,0.171200,0.171200,0.171200,0.171200,0.171100,0.171000,0.170800,0.170800,0.170600,0.170400,0.170400,0.170300,0.170300,0.170200,0.170200,0.170100,0.170100,0.170100,0.170100,0.170200,0.170200,0.170200,0.170100,0.170100,0.170100,0.170000,0.169900,0.169700,0.169600,0.169400,0.169300,0.169200,0.169200,0.169200,0.169200,0.169100,0.169000,0.169000,0.169000,0.169000,0.169000,0.169100,0.169100,1.000000,1.000000,1.000000,1.000000,1.000000,1.000000,1.000000,1.000000,1.000000,1.000000,1.000000,1.000000,1.000000,1.000000,1.000000,1.000000,1.000000,1.000000,1.000000,1.000000,1.000000,1.000000,1.000000,1.000000,1.000000,1.000000,1.000000,1.000000,1.000000,1.000000,1.000000,1.000000,1.000000,1.000000,1.000000,1.000000,1.000000,1.000000,1.000000,1.000000,1.000000,1.000000,1.000000,1.000000,1.000000,1.000000,1.000000,1.000000,1.000000,1.000000,1.000000,1.000000,1.000000,1.000000,1.000000,1.000000,1.000000,1.000000,1.000000,1.000000,1.000000,1.000000,1.000000,1.000000,1.000000,1.000000,1.000000,1.000000,1.000000,1.000000,1.000000,1.000000,1.000000,1.000000,1.000000
1.000000,1.000000,1.000000,1.000000,1.000000,1.000000,1.000000,1.000000,1.000000,1.000000,1.000000,1.000000,1.000000,1.000000,1.000000,1.000000,1.000000,1.000000,1.000000,1.000000,1.000000,0.318100,0.318100,0.318200,0.318100,0.318000,0.317800,0.317700,0.317700,1.000000,0.178600,0.178500,0.178400,0.178300,0.178200,0.178100,0.177900,0.177900,0.177900,0.177900,0.177900,0.178000,0.178000,0.178000,0.177900,0.177900,0.177600,0.177600,0.177500,0.177400,0.177200,0.177000,0.177000,0.177000,0.177000,0.177000,0.176900,0.176900,0.176800,0.176700,0.176700,0.176600,0.176500,0.176500,0.176500,0.176500,0.176400,0.176300,0.176200,0.176000,0.176000,0.176000,0.175900,0.175900,0.175700,0.175600,0.175400,0.175200,0.175200,0.175100,0.175100,0.175100,0.174900,0.174900,0.174800,0.174800,0.174800,0.174700,0.174700,0.174700,0.174700,0.174700,0.174700,0.174700,0.174600,0.174500,0.174300,0.174200,0.174200,0.174000,0.173900,0.173800,0.173700,0.173700,0.173600,0.173600,0.173600,0.173500,0.173500,0.173500,0.173300,0.173100,0.172900,0.172800,0.172800,0.172800,0.172800,0.172800,0.172800,0.172800,0.172500,0.172400,0.172300,0.172200,0.172200,0.172100,0.172000,0.171800,0.171600,0.171600,0.171500,0.171500,0.171500,0.171500,0.171500,0.171400,0.171400,0.171300,0.171200,0.171200,0.171200,0.171100,0.171000,0.170900,0.170700,0.170600,0.170500,0.170300,0.170300,0.170300,0.170200,0.170200,0.170200,0.170100,0.170100,0.170100,0.170100,0.170200,0.170200,0.170200,0.170100,0.170000,0.170000,0.169900,0.169900,0.169700,0.169600,0.169400,0.169300,0.169300,0.169300,0.169200,0.169200,0.169200,0.169100,0.169000,0.169000,0.169100,0.169100,0.169200,0.169200,1.000000,1.000000,1.000000,1.000000,1.000000,1.000000,1.000000,1.000000,1.000000,1.000000,1.000000,1.000000,1.000000,1.000000,1.000000,1.000000,1.000000,1.000000,1.000000,1.000000,1.000000,1.000000,1.000000,1.000000,1.000000,1.000000,1.000000,1.000000,1.000000,1.000000,1.000000,1.000000,1.000000,1.000000,1.000000,1.000000,1.000000,1.000000,1.000000,1.000000,1.000000,1.000000,1.000000,1.000000,1.000000,1.000000,1.000000,1.000000,1.000000,1.000000,1.000000,1.000000,1.000000,1.000000,1.000000,1.000000,1.000000,1.000000,1.000000,1.000000,1.000000,1.000000,1.000000,1.000000,1.000000,1.000000,1.000000,1.000000,1.000000,1.000000,1.000000,1.000000,1.000000,1.000000,1.000000
1.000000,1.000000,1.000000,1.000000,1.000000,1.000000,1.000000,1.000000,1.000000,1.000000,1.000000,1.000000,1.000000,1.000000,1.000000,1.000000,1.000000,1.000000,1.000000,1.000000,1.000000,0.318000,0.318000,0.318300,0.318200,0.318000,0.317800,0.317700,1.000000,1.000000,0.178700,0.178500,0.178400,0.178300,0.178200,0.178000,0.177900,0.177900,0.177900,0.177900,0.178000,0.178000,0.178000,0.178000,0.177800,0.177400,0.177200,0.177200,0.177200,0.177100,0.177000,0.177000,0.177000,0.177000,0.177000,0.177000,0.176900,0.176900,0.176800,0.176700,0.176600,0.176500,0.176500,0.176400,0.176400,0.176400,0.176300,0.176200,0.176000,0.175900,0.175800,0.175800,0.175800,0.175800,0.175600,0.175400,0.175300,0.175200,0.175200,0.175100,0.175100,0.175000,0.174900,0.174800,0.174700,0.174700,0.174700,0.174700,0.174700,0.174600,0.174600,0.174600,0.174600,0.174600,0.174400,0.174300,0.174200,0.174100,0.174100,0.173900,0.173800,0.173800,0.173700,0.173700,0.173600,0.173600,0.173400,0.173400,0.173400,0.173400,0.172900,0.172900,0.172800,0.172700,0.172700,0.172600,0.172600,0.172600,0.172600,0.172500,0.172300,0.172300,0.172200,0.172100,0.172100,0.172000,0.172000,0.171800,0.171600,0.171600,0.171500,0.171500,0.171500,0.171500,0.171500,0.171500,0.171400,0.171300,0.171300,0.171200,0.171200,0.171100,0.170900,0.170800,0.170500,0.170400,0.170400,0.170300,0.170300,0.170200,0.170200,0.170200,0.170100,0.170100,0.170100,0.170100,0.170200,0.170200,0.170200,0.170100,0.170000,0.170000,0.169900,0.169800,0.169800,0.169600,0.169500,0.169400,0.169300,0.169300,0.169300,0.169300,0.169300,0.169200,0.169200,0.169100,0.169100,0.169100,0.169200,0.169200,0.169300,1.000000,1.000000,1.000000,1.000000,1.000000,1.000000,1.000000,1.000000,1.000000,1.000000,1.000000,1.000000,1.000000,1.000000,1.000000,1.000000,1.000000,1.000000,1.000000,1.000000,1.000000,1.000000,1.000000,1.000000,1.000000,1.000000,1.000000,1.000000,1.000000,1.000000,1.000000,1.000000,1.000000,1.000000,1.000000,1.000000,1.000000,1.000000,1.000000,1.000000,1.000000,1.000000,1.000000,1.000000,1.000000,1.000000,1.000000,1.000000,1.000000,1.000000,1.000000,1.000000,1.000000,1.000000,1.000000,1.000000,1.000000,1.000000,1.000000,1.000000,1.000000,1.000000,1.000000,1.000000,1.000000,1.000000,1.000000,1.000000,1.000000,1.000000,1.000000,1.000000,1.000000,1.000000,1.000000
1.000000,1.000000,1.000000,1.000000,1.000000,1.000000,1.000000,1.000000,1.000000,1.000000,1.000000,1.000000,1.000000,1.000000,1.000000,1.000000,1.000000,1.000000,1.000000,1.000000,1.000000,1.000000,1.000000,1.000000,1.000000,0.318500,0.317800,1.000000,1.000000,1.000000,1.000000,0.178500,0.178400,0.178300,0.178200,0.178000,0.178000,0.177900,0.177900,0.177900,0.178000,0.178000,0.178000,0.177900,0.177300,0.177200,0.177100,0.177100,0.177000,0.177000,0.177000,0.176900,0.177000,0.177000,0.177000,0.177000,0.176900,0.176900,0.176700,0.176700,0.176600,0.176500,0.176500,0.176400,0.176300,0.176300,0.176200,0.176100,0.176000,0.175800,0.175800,0.175700,0.175700,0.175700,0.175500,0.175400,0.175300,0.175200,0.175100,0.175100,0.175100,0.175000,0.174900,0.174800,0.174700,0.174700,0.174700,0.174600,0.174600,0.174600,0.174500,0.174500,0.174400,0.174300,0.174200,0.174100,0.174000,0.174000,0.173900,0.173800,0.173800,0.173800,0.173700,0.173700,0.173600,0.173500,0.173300,0.173200,0.173000,0.172800,0.172800,0.172800,0.172700,0.172600,0.172600,0.172600,0.172600,0.172500,0.172500,0.172400,0.172300,0.172200,0.172100,0.172100,0.172100,0.172000,0.172000,0.171800,0.171700,0.171600,0.171500,0.171500,0.171500,0.171600,0.171600,0.171500,0.171500,0.171400,0.171300,0.171300,0.171200,0.171100,0.170800,0.170700,0.170500,0.170400,0.170300,0.170300,0.170200,0.170200,0.170200,0.170200,0.170100,0.170100,0.170100,0.170100,0.170100,0.170100,0.170000,0.170000,0.169800,0.169800,0.169800,0.169700,0.169600,0.169500,0.169400,0.169300,0.169300,0.169300,0.169200,0.169200,0.169200,0.169100,0.169100,0.169100,0.169100,0.169100,0.169200,0.169300,0.169400,1.000000,1.000000,1.000000,1.000000,1.000000,1.000000,1.000000,1.000000,1.000000,1.000000,1.000000,1.000000,1.000000,1.000000,1.000000,1.000000,1.000000,1.000000,1.000000,1.000000,1.000000,1.000000,1.000000,1.000000,1.000000,1.000000,1.000000,1.000000,1.000000,1.000000,1.000000,1.000000,1.000000,1.000000,1.000000,1.000000,1.000000,1.000000,1.000000,1.000000,1.000000,1.000000,1.000000,1.000000,1.000000,1.000000,1.000000,1.000000,1.000000,1.000000,1.000000,1.000000,1.000000,1.000000,1.000000,1.000000,1.000000,1.000000,1.000000,1.000000,1.000000,1.000000,1.000000,1.000000,1.000000,1.000000,1.000000,1.000000,1.000000,1.000000,1.000000,1.000000,1.000000,1.000000,1.000000
1.000000,1.000000,1.000000,1.000000,1.000000,1.000000,1.000000,1.000000,1.000000,1.000000,1.000000,1.000000,1.000000,1.000000,1.000000,1.000000,1.000000,1.000000,1.000000,1.000000,1.000000,1.000000,1.000000,1.000000,1.000000,1.000000,1.000000,1.000000,1.000000,1.000000,0.179000,0.178800,0.178500,0.178400,0.178200,0.178100,0.178000,0.178000,0.178000,0.178000,0.178000,0.177900,0.177900,0.177800,0.177100,0.177000,0.176900,0.176900,0.176900,0.176900,0.176900,0.176900,0.176900,0.177000,0.177000,0.177000,0.176900,0.176900,0.176700,0.176600,0.176500,0.176400,0.176400,0.176200,0.176200,0.176100,0.176100,0.176000,0.175900,0.175800,0.175700,0.175700,0.175600,0.175500,0.175400,0.175300,0.175200,0.175100,0.175100,0.175100,0.175100,0.175000,0.174800,0.174800,0.174700,0.174700,0.174700,0.174600,0.174600,0.174500,0.174500,0.174400,0.174300,0.174200,0.174100,0.174100,0.174000,0.173900,0.173900,0.173800,0.173700,0.173700,0.173800,0.173800,0.173600,0.173500,0.173300,0.173100,0.173000,0.172800,0.172800,0.172700,0.172600,0.172500,0.172500,0.172400,0.172400,0.172400,0.172300,0.172300,0.172200,0.172200,0.172100,0.172000,0.172000,0.172000,0.171900,0.171800,0.171700,0.171600,0.171500,0.171500,0.171500,0.171600,0.171600,0.171600,0.171500,0.171400,0.171400,0.171300,0.171200,0.171100,0.170800,0.170600,0.170400,0.170400,0.170300,0.170300,0.170300,0.170300,0.170200,0.170200,0.170100,0.170100,0.170000,0.170000,0.170000,0.170000,0.169900,0.169800,0.169800,0.169700,0.169700,0.169600,0.169500,0.169400,0.169400,0.169300,0.169200,0.169200,0.169200,0.169200,0.169200,0.169100,0.169100,0.169000,0.169100,0.169100,0.169200,0.169300,0.169300,1.000000,1.000000,1.000000,1.000000,1.000000,1.000000,1.000000,1.000000,1.000000,1.000000,1.000000,1.000000,1.000000,1.000000,1.000000,1.000000,1.000000,1.000000,1.000000,1.000000,1.000000,1.000000,1.000000,1.000000,1.000000,1.000000,1.000000,1.000000,1.000000,1.000000,1.000000,1.000000,1.000000,1.000000,1.000000,1.000000,1.000000,1.000000,1.000000,1.000000,1.000000,1.000000,1.000000,1.000000,1.000000,1.000000,1.000000,1.000000,1.000000,1.000000,1.000000,1.000000,1.000000,1.000000,1.000000,1.000000,1.000000,1.000000,1.000000,1.000000,1.000000,1.000000,1.000000,1.000000,1.000000,1.000000,1.000000,1.000000,1.000000,1.000000,1.000000,1.000000,1.000000,1.000000,1.000000
1.000000,1.000000,1.000000,1.000000,1.000000,1.000000,1.000000,1.000000,1.000000,1.000000,1.000000,1.000000,1.000000,1.000000,1.000000,1.000000,1.000000,1.000000,1.000000,1.000000,1.000000,1.000000,1.000000,1.000000,1.000000,1.000000,1.000000,1.000000,1.000000,0.179000,0.179000,0.178900,0.178700,0.178400,0.178200,0.178200,0.178100,0.178100,0.178100,0.178000,0.178000,0.177800,0.177800,0.177600,0.177000,0.176900,0.176800,0.176800,0.176800,0.176800,0.176800,0.176900,0.176900,0.176900,0.177000,0.177000,0.176900,0.176900,0.176700,0.176600,0.176500,0.176400,0.176300,0.176200,0.176100,0.176100,0.176100,0.176000,0.175900,0.175800,0.175700,0.175700,0.175500,0.175400,0.175300,0.175200,0.175200,0.175100,0.175100,0.175100,0.175000,0.174900,0.174800,0.174700,0.174700,0.174700,0.174700,0.174600,0.174500,0.174400,0.174300,0.174300,0.174100,0.174100,0.174000,0.174000,0.173900,0.173800,0.173800,0.173700,0.173700,0.173700,0.173700,0.173700,0.173600,0.173500,0.173300,0.173100,0.173000,0.172800,0.172800,0.172600,0.172500,0.172400,0.172400,0.172300,0.172300,0.172300,0.172300,0.172300,0.172200,0.172100,0.172000,0.172000,0.172000,0.172000,0.171900,0.171800,0.171700,0.171600,0.171600,0.171600,0.171600,0.171600,0.171600,0.171600,0.171500,0.171400,0.171400,0.171300,0.171200,0.171100,0.170800,0.170600,0.170400,0.170300,0.170300,0.170300,0.170300,0.170300,0.170300,0.170200,0.170100,0.170100,0.170000,0.170000,0.169900,0.169800,0.169800,0.169700,0.169600,0.169600,0.169600,0.169500,0.169400,0.169300,0.169300,0.169200,0.169100,0.169100,0.169100,0.169100,0.169000,0.169000,0.169000,0.168900,0.168900,0.169000,0.169000,0.169200,0.169200,1.000000,1.000000,1.000000,1.000000,1.000000,1.000000,1.000000,1.000000,1.000000,1.000000,1.000000,1.000000,1.000000,1.000000,1.000000,1.000000,1.000000,1.000000,1.000000,1.000000,1.000000,1.000000,1.000000,1.000000,1.000000,1.000000,1.000000,1.000000,1.000000,1.000000,1.000000,1.000000,1.000000,1.000000,1.000000,1.000000,1.000000,1.000000,1.000000,1.000000,1.000000,1.000000,1.000000,1.000000,1.000000,1.000000,1.000000,1.000000,1.000000,1.000000,1.000000,1.000000,1.000000,1.000000,1.000000,1.000000,1.000000,1.000000,1.000000,1.000000,1.000000,1.000000,1.000000,1.000000,1.000000,1.000000,1.000000,1.000000,1.000000,1.000000,1.000000,1.000000,1.000000,1.000000,1.000000
1.000000,1.000000,1.000000,1.000000,1.000000,1.000000,1.000000,1.000000,1.000000,1.000000,1.000000,1.000000,1.000000,1.000000,1.000000,1.000000,1.000000,1.000000,1.000000,1.000000,1.000000,1.000000,1.000000,1.000000,1.000000,1.000000,1.000000,1.000000,1.000000,0.179000,0.179000,0.178800,0.178800,0.178600,0.178200,0.178200,0.178200,0.178100,0.178100,0.178000,0.178000,0.177800,0.177700,0.177400,0.177000,0.176900,0.176800,0.176800,0.176800,0.176800,0.176800,0.176800,0.176900,0.176900,0.176900,0.177000,0.176900,0.176900,0.176700,0.176600,0.176500,0.176300,0.176200,0.176100,0.176100,0.176000,0.176000,0.176000,0.175900,0.175800,0.175700,0.175700,0.175500,0.175400,0.175300,0.175200,0.175200,0.175100,0.175100,0.175000,0.175000,0.174900,0.174700,0.174700,0.174700,0.174700,0.174700,0.174600,0.174500,0.174300,0.174200,0.174200,0.174100,0.174000,0.174000,0.173900,0.173800,0.173800,0.173700,0.173600,0.173600,0.173700,0.173700,0.173700,0.173600,0.173500,0.173400,0.173200,0.173100,0.172900,0.172800,0.172600,0.172500,0.172400,0.172300,0.172200,0.172200,0.172200,0.172200,0.172200,0.172100,0.172100,0.172000,0.172000,0.172000,0.171900,0.171900,0.171800,0.171700,0.171700,0.171600,0.171600,0.171600,0.171600,0.171600,0.171600,0.171500,0.171400,0.171400,0.171300,0.171200,0.171000,0.170800,0.170600,0.170400,0.170300,0.170300,0.170300,0.170400,0.170400,0.170300,0.170300,0.170200,0.170100,0.170000,0.169900,0.169900,0.169800,0.169700,0.169700,0.169600,0.169600,0.169500,0.169500,0.169400,0.169300,0.169200,0.169100,0.169000,0.169000,0.169000,0.169000,0.169000,0.169000,0.168900,0.168800,0.168700,0.168500,0.168500,0.168700,0.169000,1.000000,1.000000,1.000000,1.000000,1.000000,1.000000,1.000000,1.000000,1.000000,1.000000,1.000000,1.000000,1.000000,1.000000,1.000000,1.000000,1.000000,1.000000,1.000000,1.000000,1.000000,1.000000,1.000000,1.000000,1.000000,1.000000,1.000000,1.000000,1.000000,1.000000,1.000000,1.000000,1.000000,1.000000,1.000000,1.000000,1.000000,1.000000,1.000000,1.000000,1.000000,1.000000,1.000000,1.000000,1.000000,1.000000,1.000000,1.000000,1.000000,1.000000,1.000000,1.000000,1.000000,1.000000,1.000000,1.000000,1.000000,1.000000,1.000000,1.000000,1.000000,1.000000,1.000000,1.000000,1.000000,1.000000,1.000000,1.000000,1.000000,1.000000,1.000000,1.000000,1.000000,1.000000,1.000000
1.000000,1.000000,1.000000,1.000000,1.000000,1.000000,1.000000,1.000000,1.000000,1.000000,1.000000,1.000000,1.000000,1.000000,1.000000,1.000000,1.000000,1.000000,1.000000,1.000000,1.000000,1.000000,1.000000,1.000000,1.000000,1.000000,1.000000,1.000000,1.000000,1.000000,0.178000,0.178000,0.178700,0.178600,0.178500,0.178400,0.178200,0.178200,0.178200,0.178000,0.177900,0.177700,0.177500,0.177300,0.177000,0.176900,0.176800,0.176800,0.176800,0.176800,0.176800,0.176800,0.176800,0.176800,0.176900,0.176900,0.176900,0.176800,0.176600,0.176500,0.176400,0.176200,0.176100,0.176000,0.176000,0.175900,0.175900,0.175900,0.175900,0.175800,0.175800,0.175700,0.175500,0.175400,0.175300,0.175200,0.175200,0.175100,0.175100,0.175000,0.174900,0.174800,0.174700,0.174700,0.174700,0.174700,0.174700,0.174600,0.174400,0.174200,0.174200,0.174100,0.174100,0.174000,0.174000,0.173900,0.173800,0.173700,0.173600,0.173600,0.173600,0.173600,0.173700,0.173700,0.173600,0.173600,0.173400,0.173400,0.173200,0.173000,0.172800,0.172600,0.172500,0.172400,0.172200,0.172100,0.172100,0.172100,0.172100,0.172100,0.172100,0.172000,0.171900,0.171900,0.171900,0.171800,0.171800,0.171800,0.171700,0.171700,0.171600,0.171600,0.171600,0.171600,0.171600,0.171500,0.171500,0.171400,0.171300,0.171300,0.171100,0.171000,0.170800,0.170600,0.170400,0.170300,0.170300,0.170300,0.170400,0.170400,0.170500,0.170500,0.170300,0.170200,0.170000,0.170000,0.169900,0.169800,0.169700,0.169600,0.169600,0.169600,0.169500,0.169500,0.169400,0.169300,0.169200,0.169100,0.169000,0.169000,0.169000,0.169000,0.169000,0.168900,0.168800,0.168600,0.168400,0.168400,0.168400,0.168500,0.168600,1.000000,1.000000,1.000000,1.000000,1.000000,1.000000,1.000000,1.000000,1.000000,1.000000,1.000000,1.000000,1.000000,1.000000,1.000000,1.000000,1.000000,1.000000,1.000000,1.000000,1.000000,1.000000,1.000000,1.000000,1.000000,1.000000,1.000000,1.000000,1.000000,1.000000,1.000000,1.000000,1.000000,1.000000,1.000000,1.000000,1.000000,1.000000,1.000000,1.000000,1.000000,1.000000,1.000000,1.000000,1.000000,1.000000,1.000000,1.000000,1.000000,1.000000,1.000000,1.000000,1.000000,1.000000,1.000000,1.000000,1.000000,1.000000,1.000000,1.000000,1.000000,1.000000,1.000000,1.000000,1.000000,1.000000,1.000000,1.000000,1.000000,1.000000,1.000000,1.000000,1.000000,1.000000,1.000000
1.000000,1.000000,1.000000,1.000000,1.000000,1.000000,1.000000,1.000000,1.000000,1.000000,1.000000,1.000000,1.000000,1.000000,1.000000,1.000000,1.000000,1.000000,1.000000,1.000000,1.000000,1.000000,1.000000,1.000000,1.000000,1.000000,1.000000,1.000000,1.000000,0.178000,0.178000,0.178000,0.178200,0.178400,0.178500,0.178500,0.178300,0.178200,0.178100,0.177800,0.177600,0.177400,0.177300,0.177200,0.177000,0.176900,0.176800,0.176800,0.176800,0.176800,0.176800,0.176800,0.176800,0.176800,0.176800,0.176900,0.176800,0.176800,0.176600,0.176500,0.176400,0.176200,0.176100,0.176000,0.175900,0.175900,0.175900,0.175900,0.175900,0.175800,0.175700,0.175700,0.175500,0.175400,0.175300,0.175200,0.175200,0.175100,0.175100,0.174900,0.174800,0.174700,0.174700,0.174700,0.174700,0.174700,0.174700,0.174500,0.174200,0.174100,0.174100,0.174100,0.174000,0.174000,0.173900,0.173800,0.173700,0.173600,0.173600,0.173600,0.173600,0.173600,0.173600,0.173600,0.173500,0.173500,0.173400,0.173400,0.173300,0.173000,0.172800,0.172600,0.172500,0.172400,0.172200,0.172200,0.172100,0.172100,0.172100,0.172100,0.172100,0.172000,0.171900,0.171800,0.171800,0.171800,0.171800,0.171700,0.171700,0.171700,0.171700,0.171700,0.171700,0.171600,0.171600,0.171500,0.171400,0.171300,0.171300,0.171300,0.171100,0.171000,0.170800,0.170600,0.170400,0.170300,0.170300,0.170300,0.170400,0.170400,0.170500,0.170500,0.170400,0.170300,0.170100,0.170000,0.169900,0.169800,0.169700,0.169600,0.169600,0.169500,0.169500,0.169400,0.169400,0.169200,0.169000,0.169000,0.168900,0.168900,0.169000,0.169000,0.169000,0.168800,0.168600,0.168400,0.168300,0.168300,0.168400,0.168500,0.168600,1.000000,1.000000,1.000000,1.000000,1.000000,1.000000,1.000000,1.000000,1.000000,1.000000,1.000000,1.000000,1.000000,1.000000,1.000000,1.000000,1.000000,1.000000,1.000000,1.000000,1.000000,1.000000,1.000000,1.000000,1.000000,1.000000,1.000000,1.000000,1.000000,1.000000,1.000000,1.000000,1.000000,1.000000,1.000000,1.000000,1.000000,1.000000,1.000000,1.000000,1.000000,1.000000,1.000000,1.000000,1.000000,1.000000,1.000000,1.000000,1.000000,1.000000,1.000000,1.000000,1.000000,1.000000,1.000000,1.000000,1.000000,1.000000,1.000000,1.000000,1.000000,1.000000,1.000000,1.000000,1.000000,1.000000,1.000000,1.000000,1.000000,1.000000,1.000000,1.000000,1.000000,1.000000,1.000000
1.000000,1.000000,1.000000,1.000000,1.000000,1.000000,1.000000,1.000000,1.000000,1.000000,1.000000,1.000000,1.000000,1.000000,1.000000,1.000000,1.000000,1.000000,1.000000,1.000000,1.000000,1.000000,1.000000,1.000000,1.000000,1.000000,1.000000,1.000000,1.000000,0.178000,0.178000,0.178000,0.178200,0.178300,0.178400,0.178400,0.178300,0.178200,0.178100,0.177500,0.177400,0.177300,0.177200,0.177200,0.177000,0.177000,0.176900,0.176900,0.176900,0.176900,0.176800,0.176800,0.176800,0.176800,0.176800,0.176700,0.176700,0.176600,0.176500,0.176400,0.176300,0.176200,0.176100,0.176000,0.176000,0.175900,0.175900,0.175900,0.175800,0.175700,0.175600,0.175600,0.175400,0.175400,0.175200,0.175200,0.175200,0.175100,0.175100,0.174900,0.174800,0.174700,0.174700,0.174700,0.174700,0.174800,0.174700,0.174400,0.174100,0.174100,0.174100,0.174100,0.174000,0.174000,0.173800,0.173800,0.173600,0.173600,0.173600,0.173500,0.173600,0.173500,0.173500,0.173500,0.173500,0.173400,0.173400,0.173300,0.173200,0.173000,0.172900,0.172600,0.172500,0.172400,0.172200,0.172200,0.172100,0.172100,0.172100,0.172100,0.172100,0.172000,0.171800,0.171700,0.171700,0.171600,0.171600,0.171600,0.171700,0.171700,0.171700,0.171700,0.171600,0.171600,0.171600,0.171500,0.171400,0.171300,0.171300,0.171200,0.171100,0.171100,0.170800,0.170600,0.170400,0.170400,0.170300,0.170300,0.170400,0.170400,0.170500,0.170500,0.170400,0.170300,0.170100,0.170000,0.169900,0.169800,0.169700,0.169600,0.169500,0.169500,0.169500,0.169500,0.169300,0.169100,0.169000,0.168900,0.168800,0.168900,0.168900,0.169000,0.169000,0.168700,0.168500,0.168400,0.168300,0.168300,0.168400,0.168500,0.168600,1.000000,1.000000,1.000000,1.000000,1.000000,1.000000,1.000000,1.000000,1.000000,1.000000,1.000000,1.000000,1.000000,1.000000,1.000000,1.000000,1.000000,1.000000,1.000000,1.000000,1.000000,1.000000,1.000000,1.000000,1.000000,1.000000,1.000000,1.000000,1.000000,1.000000,1.000000,1.000000,1.000000,1.000000,1.000000,1.000000,1.000000,1.000000,1.000000,1.000000,1.000000,1.000000,1.000000,1.000000,1.000000,1.000000,1.000000,1.000000,1.000000,1.000000,1.000000,1.000000,1.000000,1.000000,1.000000,1.000000,1.000000,1.000000,1.000000,1.000000,1.000000,1.000000,1.000000,1.000000,1.000000,1.000000,1.000000,0.247200,0.241600,1.000000,1.000000,1.000000,1.000000,1.000000,1.000000
1.000000,1.000000,1.000000,1.000000,1.000000,1.000000,1.000000,1.000000,1.000000,1.000000,1.000000,1.000000,1.000000,1.000000,1.000000,1.000000,1.000000,1.000000,1.000000,1.000000,1.000000,1.000000,1.000000,1.000000,1.000000,1.000000,1.000000,1.000000,1.000000,0.178000,0.178000,0.178000,0.178100,0.178200,0.178200,0.178300,0.178200,0.178100,0.177900,0.177300,0.177300,0.177200,0.177200,0.177200,0.177100,0.177100,0.177000,0.177000,0.177000,0.176900,0.176900,0.176800,0.176800,0.176700,0.176700,0.176700,0.176600,0.176500,0.176400,0.176300,0.176200,0.176200,0.176100,0.176000,0.176000,0.176000,0.175900,0.175800,0.175700,0.175600,0.175600,0.175500,0.175400,0.175300,0.175200,0.175200,0.175200,0.175100,0.175000,0.174800,0.174700,0.174700,0.174700,0.174700,0.174800,0.174800,0.174700,0.174100,0.174000,0.174000,0.174000,0.174000,0.173900,0.173900,0.173700,0.173600,0.173600,0.173500,0.173500,0.173500,0.173500,0.173400,0.173400,0.173400,0.173300,0.173300,0.173300,0.173300,0.173200,0.173000,0.172900,0.172700,0.172600,0.172500,0.172300,0.172200,0.172100,0.172200,0.172200,0.172200,0.172100,0.172000,0.171800,0.171600,0.171600,0.171600,0.171600,0.171600,0.171600,0.171700,0.171700,0.171600,0.171600,0.171600,0.171500,0.171400,0.171400,0.171300,0.171300,0.171300,0.171200,0.171100,0.170800,0.170700,0.170500,0.170400,0.170300,0.170300,0.170300,0.170300,0.170400,0.170400,0.170300,0.170200,0.170000,0.169900,0.169800,0.169700,0.169700,0.169500,0.169500,0.169400,0.169400,0.169400,0.169300,0.169100,0.169000,0.168900,0.168800,0.168800,0.168900,0.169000,0.169000,0.168700,0.168500,0.168300,0.168300,0.168400,0.168400,0.168500,0.168600,1.000000,1.000000,1.000000,1.000000,1.000000,1.000000,1.000000,1.000000,1.000000,1.000000,1.000000,1.000000,1.000000,1.000000,1.000000,1.000000,1.000000,1.000000,1.000000,1.000000,1.000000,1.000000,1.000000,1.000000,1.000000,1.000000,1.000000,1.000000,1.000000,1.000000,1.000000,1.000000,1.000000,1.000000,1.000000,1.000000,1.000000,1.000000,1.000000,1.000000,1.000000,1.000000,1.000000,1.000000,1.000000,1.000000,1.000000,1.000000,1.000000,1.000000,1.000000,1.000000,1.000000,1.000000,1.000000,1.000000,1.000000,1.000000,1.000000,1.000000,1.000000,1.000000,1.000000,1.000000,1.000000,1.000000,1.000000,0.241500,0.241500,1.000000,1.000000,1.000000,1.000000,1.000000,1.000000
1.000000,1.000000,1.000000,1.000000,1.000000,1.000000,1.000000,1.000000,1.000000,1.000000,1.000000,1.000000,1.000000,1.000000,1.000000,1.000000,1.000000,1.000000,1.000000,1.000000,1.000000,1.000000,1.000000,1.000000,1.000000,1.000000,1.000000,1.000000,1.000000,0.178200,0.178100,0.178000,0.178000,0.178100,0.178100,0.178200,0.178100,0.178000,0.177900,0.177400,0.177300,0.177200,0.177200,0.177200,0.177200,0.177200,0.177100,0.177100,0.177000,0.177000,0.176900,0.176800,0.176800,0.176700,0.176600,0.176500,0.176300,0.176200,0.176200,0.176200,0.176100,0.176100,0.176100,0.176000,0.176000,0.176000,0.175900,0.175600,0.175400,0.175400,0.175500,0.175400,0.175400,0.175300,0.175200,0.175100,0.175100,0.175000,0.175000,0.174800,0.174700,0.174700,0.174700,0.174800,0.174800,0.174700,0.174700,0.174100,0.174000,0.174000,0.174000,0.174000,0.173900,0.173800,0.173700,0.173600,0.173600,0.173500,0.173500,0.173500,0.173500,0.173400,0.173400,0.173300,0.173300,0.173300,0.173300,0.173300,0.173200,0.173100,0.173000,0.172700,0.172600,0.172500,0.172400,0.172300,0.172200,0.172200,0.172200,0.172300,0.172200,0.172100,0.171600,0.171600,0.171600,0.171600,0.171600,0.171600,0.171600,0.171600,0.171600,0.171500,0.171500,0.171400,0.171400,0.171400,0.171400,0.171300,0.171300,0.171300,0.171200,0.171200,0.170900,0.170700,0.170400,0.170400,0.170300,0.170300,0.170300,0.170300,0.170300,0.170300,0.170200,0.170100,0.169900,0.169800,0.169800,0.169700,0.169600,0.169500,0.169400,0.169400,0.169300,0.169300,0.169300,0.169200,0.169100,0.168900,0.168800,0.168800,0.168900,0.169000,0.169000,0.168800,0.168500,0.168400,0.168400,0.168400,0.168500,0.168600,0.168600,1.000000,1.000000,1.000000,1.000000,1.000000,1.000000,1.000000,1.000000,1.000000,1.000000,1.000000,1.000000,1.000000,1.000000,1.000000,1.000000,1.000000,1.000000,1.000000,1.000000,1.000000,1.000000,1.000000,1.000000,1.000000,1.000000,1.000000,1.000000,1.000000,1.000000,1.000000,1.000000,1.000000,1.000000,1.000000,1.000000,1.000000,1.000000,1.000000,1.000000,1.000000,1.000000,1.000000,1.000000,1.000000,1.000000,1.000000,1.000000,1.000000,1.000000,1.000000,1.000000,1.000000,1.000000,1.000000,1.000000,1.000000,1.000000,1.000000,1.000000,1.000000,1.000000,1.000000,1.000000,1.000000,1.000000,1.000000,1.000000,0.240300,1.000000,1.000000,1.000000,1.000000,1.000000,1.000000
1.000000,1.000000,1.000000,1.000000,1.000000,1.000000,1.000000,1.000000,1.000000,1.000000,1.000000,1.000000,1.000000,1.000000,1.000000,1.000000,1.000000,1.000000,1.000000,1.000000,1.000000,1.000000,1.000000,1.000000,1.000000,1.000000,1.000000,1.000000,1.000000,0.178200,0.178200,0.178000,0.178000,0.178000,0.178000,0.178100,0.178000,0.178000,0.177900,0.177400,0.177300,0.177200,0.177200,0.177200,0.177200,0.177200,0.177200,0.177100,0.177000,0.176900,0.176900,0.176800,0.176800,0.176600,0.176500,0.176500,0.176200,0.176200,0.176100,0.176100,0.176100,0.176100,0.176100,0.176000,0.176000,0.176000,0.175800,0.175200,0.175300,0.175400,0.175400,0.175400,0.175400,0.175200,0.175100,0.175100,0.175000,0.174900,0.174900,0.174700,0.174700,0.174700,0.174700,0.174700,0.174700,0.174700,0.174600,0.174300,0.174000,0.173900,0.173900,0.173900,0.173800,0.173800,0.173600,0.173600,0.173600,0.173600,0.173600,0.173600,0.173500,0.173400,0.173400,0.173300,0.173300,0.173300,0.173300,0.173300,0.173200,0.173100,0.173000,0.172700,0.172600,0.172600,0.172400,0.172300,0.172300,0.172300,0.172300,0.172300,0.172300,0.171900,0.171600,0.171600,0.171600,0.171600,0.171600,0.171600,0.171600,0.171600,0.171500,0.171400,0.171400,0.171400,0.171400,0.171400,0.171400,0.171400,0.171400,0.171300,0.171300,0.171200,0.171000,0.170800,0.170400,0.170300,0.170300,0.170200,0.170300,0.170300,0.170200,0.170200,0.170100,0.170000,0.169800,0.169700,0.169700,0.169700,0.169600,0.169500,0.169400,0.169300,0.169300,0.169300,0.169200,0.169200,0.169100,0.168900,0.168800,0.168800,0.168900,0.168900,0.169000,0.168800,0.168600,0.168400,0.168400,0.168400,0.168500,0.168500,0.168600,1.000000,1.000000,1.000000,1.000000,1.000000,1.000000,1.000000,1.000000,1.000000,1.000000,1.000000,1.000000,1.000000,1.000000,1.000000,1.000000,1.000000,1.000000,1.000000,1.000000,1.000000,1.000000,1.000000,1.000000,1.000000,1.000000,1.000000,1.000000,1.000000,1.000000,1.000000,1.000000,1.000000,1.000000,1.000000,1.000000,1.000000,1.000000,1.000000,1.000000,1.000000,1.000000,1.000000,1.000000,1.000000,1.000000,1.000000,1.000000,1.000000,1.000000,1.000000,1.000000,1.000000,1.000000,1.000000,1.000000,1.000000,1.000000,1.000000,1.000000,1.000000,1.000000,1.000000,1.000000,1.000000,1.000000,1.000000,1.000000,1.000000,1.000000,1.000000,1.000000,1.000000,1.000000,1.000000
1.000000,1.000000,1.000000,1.000000,1.000000,1.000000,1.000000,1.000000,1.000000,1.000000,1.000000,1.000000,1.000000,1.000000,1.000000,1.000000,1.000000,1.000000,1.000000,1.000000,1.000000,1.000000,1.000000,1.000000,1.000000,1.000000,1.000000,1.000000,1.000000,0.178400,0.178200,0.178000,0.178000,0.177900,0.177900,0.177900,0.177900,0.177900,0.177800,0.177500,0.177400,0.177200,0.177200,0.177300,0.177300,0.177300,0.177200,0.177100,0.177000,0.176900,0.176900,0.176800,0.176700,0.176600,0.176500,0.176400,0.176200,0.176100,0.176000,0.176000,0.176100,0.176100,0.176100,0.176000,0.176000,0.175900,0.175100,0.175200,0.175200,0.175400,0.175400,0.175400,0.175400,0.175200,0.175100,0.175000,0.175000,0.174800,0.174700,0.174600,0.174600,0.174600,0.174600,0.174600,0.174600,0.174500,0.174400,0.174200,0.174000,0.173800,0.173800,0.173800,0.173700,0.173700,0.173600,0.173600,0.173600,0.173600,0.173600,0.173600,0.173500,0.173400,0.173300,0.173200,0.173200,0.173200,0.173200,0.173300,0.173200,0.173100,0.172900,0.172700,0.172600,0.172500,0.172400,0.172400,0.172300,0.172300,0.172300,0.172200,0.172200,0.171800,0.171600,0.171600,0.171600,0.171600,0.171600,0.171600,0.171600,0.171500,0.171400,0.171400,0.171300,0.171300,0.171300,0.171400,0.171400,0.171400,0.171400,0.171400,0.171300,0.171200,0.171000,0.170800,0.170300,0.170200,0.170200,0.170200,0.170200,0.170200,0.170200,0.170100,0.169900,0.169800,0.169700,0.169600,0.169600,0.169600,0.169600,0.169400,0.169400,0.169300,0.169300,0.169300,0.169200,0.169100,0.169100,0.168900,0.168800,0.168800,0.168800,0.168800,0.168800,0.168800,0.168600,0.168500,0.168400,0.168400,0.168500,0.168500,0.168500,1.000000,1.000000,1.000000,1.000000,1.000000,1.000000,1.000000,1.000000,1.000000,1.000000,1.000000,1.000000,1.000000,1.000000,1.000000,1.000000,1.000000,1.000000,1.000000,1.000000,1.000000,1.000000,1.000000,1.000000,1.000000,1.000000,1.000000,1.000000,1.000000,1.000000,1.000000,1.000000,1.000000,1.000000,1.000000,1.000000,1.000000,1.000000,1.000000,1.000000,1.000000,1.000000,1.000000,1.000000,1.000000,1.000000,1.000000,1.000000,1.000000,1.000000,1.000000,1.000000,1.000000,1.000000,1.000000,1.000000,1.000000,1.000000,1.000000,1.000000,1.000000,1.000000,1.000000,1.000000,1.000000,1.000000,1.000000,1.000000,1.000000,1.000000,1.000000,1.000000,1.000000,1.000000,1.000000
1.000000,1.000000,1.000000,1.000000,1.000000,1.000000,1.000000,1.000000,1.000000,1.000000,1.000000,1.000000,1.000000,1.000000,1.000000,1.000000,1.000000,1.000000,1.000000,1.000000,1.000000,1.000000,1.000000,1.000000,1.000000,1.000000,1.000000,1.000000,1.000000,1.000000,0.178400,0.178200,0.178000,0.177900,0.177900,0.177900,0.177900,0.177800,0.177800,0.177500,0.177400,0.177300,0.177300,0.177300,0.177300,0.177300,0.177200,0.177100,0.176900,0.176800,0.176800,0.176700,0.176600,0.176500,0.176400,0.176200,0.176000,0.176000,0.175900,0.175900,0.176000,0.176000,0.176000,0.176000,0.175900,0.175200,0.175100,0.175100,0.175200,0.175300,0.175400,0.175400,0.175400,0.175300,0.175100,0.175000,0.174900,0.174800,0.174700,0.174600,0.174600,0.174600,0.174500,0.174500,0.174400,0.174400,0.174400,0.174100,0.173900,0.173800,0.173800,0.173700,0.173700,0.173600,0.173600,0.173600,0.173600,0.173600,0.173600,0.173600,0.173500,0.173400,0.173300,0.173200,0.173200,0.173200,0.173200,0.173200,0.173200,0.173000,0.172900,0.172600,0.172600,0.172500,0.172400,0.172400,0.172300,0.172300,0.172300,0.172100,0.172000,0.171800,0.171600,0.171600,0.171600,0.171600,0.171600,0.171600,0.171600,0.171500,0.171400,0.171300,0.171200,0.171200,0.171200,0.171300,0.171300,0.171400,0.171400,0.171300,0.171200,0.171100,0.170800,0.170500,0.170200,0.170100,0.170100,0.170100,0.170200,0.170200,0.170100,0.170100,0.169900,0.169800,0.169600,0.169600,0.169600,0.169600,0.169600,0.169500,0.169400,0.169300,0.169300,0.169300,0.169200,0.169200,0.169100,0.168900,0.168800,0.168800,0.168800,0.168800,0.168800,0.168700,0.168700,0.168500,0.168500,0.168400,0.168400,0.168500,0.168400,1.000000,1.000000,1.000000,1.000000,1.000000,1.000000,1.000000,1.000000,1.000000,1.000000,1.000000,1.000000,1.000000,1.000000,1.000000,1.000000,1.000000,1.000000,1.000000,1.000000,1.000000,1.000000,1.000000,1.000000,1.000000,1.000000,1.000000,1.000000,1.000000,1.000000,1.000000,1.000000,1.000000,1.000000,1.000000,1.000000,1.000000,1.000000,1.000000,1.000000,1.000000,1.000000,1.000000,1.000000,1.000000,1.000000,1.000000,1.000000,1.000000,1.000000,1.000000,1.000000,1.000000,1.000000,1.000000,1.000000,1.000000,1.000000,1.000000,1.000000,1.000000,1.000000,1.000000,1.000000,1.000000,1.000000,1.000000,1.000000,1.000000,1.000000,1.000000,1.000000,1.000000,1.000000,1.000000
1.000000,1.000000,1.000000,1.000000,1.000000,1.000000,1.000000,1.000000,1.000000,1.000000,1.000000,1.000000,1.000000,1.000000,1.000000,1.000000,1.000000,1.000000,1.000000,1.000000,1.000000,1.000000,1.000000,1.000000,1.000000,1.000000,1.000000,1.000000,1.000000,0.178500,0.178400,0.178200,0.177900,0.177800,0.177800,0.177800,0.177800,0.177800,0.177700,0.177500,0.177400,0.177300,0.177200,0.177200,0.177300,0.177200,0.177100,0.177100,0.176900,0.176800,0.176800,0.176600,0.176500,0.176400,0.176300,0.176200,0.176000,0.175900,0.175800,0.175800,0.175900,0.175900,0.175900,0.175900,0.175900,0.175200,0.175100,0.175100,0.175200,0.175300,0.175400,0.175400,0.175400,0.175300,0.175100,0.175000,0.174900,0.174800,0.174800,0.174600,0.174600,0.174500,0.174400,0.174400,0.174300,0.174200,0.174100,0.173900,0.173800,0.173700,0.173700,0.173600,0.173600,0.173600,0.173600,0.173600,0.173600,0.173600,0.173600,0.173600,0.173500,0.173400,0.173300,0.173200,0.173200,0.173200,0.173100,0.173100,0.173100,0.172900,0.172800,0.172600,0.172600,0.172500,0.172400,0.172400,0.172300,0.172300,0.172200,0.172100,0.172000,0.171800,0.171700,0.171600,0.171600,0.171600,0.171600,0.171600,0.171500,0.171500,0.171300,0.171300,0.171200,0.171100,0.171100,0.171200,0.171200,0.171300,0.171300,0.171300,0.171100,0.171000,0.170600,0.170400,0.170200,0.170100,0.170100,0.170100,0.170200,0.170100,0.170100,0.170000,0.169800,0.169800,0.169600,0.169600,0.169600,0.169600,0.169600,0.169500,0.169400,0.169400,0.169300,0.169300,0.169200,0.169200,0.169100,0.169000,0.168900,0.168800,0.168800,0.168800,0.168700,0.168700,0.168600,0.168500,0.168500,0.168400,0.168400,0.168400,0.168400,1.000000,1.000000,1.000000,1.000000,1.000000,1.000000,1.000000,1.000000,1.000000,1.000000,1.000000,1.000000,1.000000,1.000000,1.000000,1.000000,1.000000,1.000000,1.000000,1.000000,1.000000,1.000000,1.000000,1.000000,1.000000,1.000000,1.000000,1.000000,1.000000,1.000000,1.000000,1.000000,1.000000,1.000000,1.000000,1.000000,1.000000,1.000000,1.000000,1.000000,1.000000,1.000000,1.000000,1.000000,1.000000,1.000000,1.000000,1.000000,1.000000,1.000000,1.000000,1.000000,1.000000,1.000000,1.000000,1.000000,1.000000,1.000000,1.000000,1.000000,1.000000,1.000000,1.000000,1.000000,1.000000,1.000000,1.000000,1.000000,1.000000,1.000000,1.000000,1.000000,1.000000,1.000000,1.000000
1.000000,1.000000,1.000000,1.000000,1.000000,1.000000,1.000000,1.000000,1.000000,1.000000,1.000000,1.000000,1.000000,1.000000,1.000000,1.000000,1.000000,1.000000,1.000000,1.000000,1.000000,1.000000,1.000000,1.000000,1.000000,1.000000,1.000000,1.000000,1.000000,0.178100,0.178200,0.178000,0.177800,0.177800,0.177700,0.177700,0.177700,0.177700,0.177700,0.177500,0.177400,0.177200,0.177200,0.177200,0.177200,0.177200,0.177100,0.177100,0.176900,0.176800,0.176700,0.176500,0.176400,0.176200,0.176100,0.176000,0.175800,0.175700,0.175700,0.175700,0.175800,0.175800,0.175900,0.175800,0.175700,0.175300,0.175200,0.175100,0.175200,0.175200,0.175200,0.175300,0.175300,0.175200,0.175100,0.175100,0.175000,0.174900,0.174800,0.174600,0.174500,0.174400,0.174400,0.174300,0.174300,0.174200,0.174100,0.173800,0.173800,0.173700,0.173600,0.173600,0.173600,0.173600,0.173600,0.173600,0.173600,0.173600,0.173600,0.173600,0.173500,0.173400,0.173300,0.173200,0.173100,0.173100,0.173100,0.173000,0.173000,0.172900,0.172800,0.172600,0.172600,0.172500,0.172400,0.172400,0.172300,0.172200,0.172200,0.172000,0.172000,0.171800,0.171700,0.171600,0.171600,0.171600,0.171600,0.171500,0.171500,0.171400,0.171300,0.171200,0.171000,0.171000,0.170900,0.170900,0.171000,0.171000,0.171100,0.171000,0.170800,0.170700,0.170500,0.170400,0.170200,0.170200,0.170200,0.170200,0.170200,0.170100,0.170100,0.170000,0.169800,0.169800,0.169600,0.169600,0.169600,0.169600,0.169500,0.169500,0.169500,0.169500,0.169400,0.169400,0.169300,0.169200,0.169200,0.169000,0.169000,0.168800,0.168800,0.168800,0.168700,0.168700,0.168600,0.168600,0.168400,0.168400,0.168300,0.168300,0.168200,1.000000,1.000000,1.000000,1.000000,1.000000,1.000000,1.000000,1.000000,1.000000,1.000000,1.000000,1.000000,1.000000,1.000000,1.000000,1.000000,1.000000,1.000000,1.000000,1.000000,1.000000,1.000000,1.000000,1.000000,1.000000,1.000000,1.000000,1.000000,1.000000,1.000000,1.000000,1.000000,1.000000,1.000000,1.000000,1.000000,1.000000,1.000000,1.000000,1.000000,1.000000,1.000000,1.000000,1.000000,1.000000,1.000000,1.000000,1.000000,1.000000,1.000000,1.000000,1.000000,1.000000,1.000000,1.000000,1.000000,1.000000,1.000000,1.000000,1.000000,1.000000,1.000000,1.000000,1.000000,1.000000,1.000000,1.000000,1.000000,1.000000,1.000000,1.000000,1.000000,1.000000,1.000000,1.000000
1.000000,1.000000,1.000000,1.000000,1.000000,1.000000,1.000000,1.000000,1.000000,1.000000,1.000000,1.000000,1.000000,1.000000,1.000000,1.000000,1.000000,1.000000,1.000000,1.000000,1.000000,1.000000,1.000000,1.000000,1.000000,1.000000,1.000000,1.000000,1.000000,0.178000,0.178000,0.177900,0.177800,0.177700,0.177700,0.177700,0.177700,0.177700,0.177600,0.177500,0.177400,0.177200,0.177200,0.177200,0.177100,0.177100,0.177100,0.177000,0.176900,0.176800,0.176800,0.176500,0.176400,0.176200,0.176100,0.176000,0.175700,0.175700,0.175700,0.175700,0.175800,0.175800,0.175900,0.175800,0.175700,0.175400,0.175200,0.175100,0.175200,0.175200,0.175200,0.175200,0.175200,0.175200,0.175100,0.175100,0.175000,0.174900,0.174700,0.174500,0.174400,0.174400,0.174300,0.174300,0.174200,0.174100,0.174000,0.173800,0.173800,0.173700,0.173600,0.173600,0.173600,0.173600,0.173500,0.173500,0.173600,0.173600,0.173600,0.173600,0.173500,0.173400,0.173300,0.173200,0.173100,0.173100,0.173000,0.173000,0.172900,0.172800,0.172800,0.172600,0.172600,0.172500,0.172400,0.172300,0.172200,0.172200,0.172100,0.172000,0.172000,0.171800,0.171800,0.171700,0.171600,0.171600,0.171500,0.171500,0.171400,0.171400,0.171200,0.171200,0.171000,0.170900,0.170800,0.170800,0.170900,0.170900,0.171000,0.170900,0.170800,0.170600,0.170500,0.170400,0.170200,0.170200,0.170200,0.170200,0.170200,0.170100,0.170000,0.170000,0.169800,0.169700,0.169600,0.169600,0.169500,0.169500,0.169500,0.169500,0.169500,0.169500,0.169500,0.169400,0.169300,0.169300,0.169200,0.169100,0.169000,0.168900,0.168800,0.168800,0.168700,0.168700,0.168600,0.168500,0.168400,0.168300,0.168200,0.168200,0.168100,1.000000,1.000000,1.000000,1.000000,1.000000,1.000000,1.000000,1.000000,1.000000,1.000000,1.000000,1.000000,1.000000,1.000000,1.000000,1.000000,1.000000,1.000000,1.000000,1.000000,1.000000,1.000000,1.000000,1.000000,1.000000,1.000000,1.000000,1.000000,1.000000,1.000000,1.000000,1.000000,1.000000,1.000000,1.000000,1.000000,1.000000,1.000000,1.000000,1.000000,1.000000,1.000000,1.000000,1.000000,1.000000,1.000000,1.000000,1.000000,1.000000,1.000000,1.000000,1.000000,1.000000,1.000000,1.000000,1.000000,1.000000,1.000000,1.000000,1.000000,1.000000,1.000000,1.000000,1.000000,1.000000,1.000000,1.000000,1.000000,1.000000,1.000000,1.000000,1.000000,1.000000,1.000000,1.000000
1.000000,1.000000,1.000000,1.000000,1.000000,1.000000,1.000000,1.000000,1.000000,1.000000,1.000000,1.000000,1.000000,1.000000,1.000000,1.000000,1.000000,1.000000,1.000000,1.000000,1.000000,1.000000,1.000000,1.000000,1.000000,1.000000,1.000000,1.000000,1.000000,0.178000,0.177900,0.177800,0.177700,0.177700,0.177600,0.177600,0.177600,0.177500,0.177500,0.177300,0.177200,0.177000,0.177000,0.177000,0.177000,0.177000,0.177000,0.177000,0.176900,0.176800,0.176800,0.176600,0.176400,0.176200,0.176000,0.175900,0.175700,0.175700,0.175700,0.175700,0.175800,0.175800,0.175900,0.175800,0.175700,0.175300,0.175200,0.175100,0.175100,0.175200,0.175200,0.175200,0.175200,0.175200,0.175200,0.175100,0.175000,0.174800,0.174600,0.174300,0.174300,0.174200,0.174200,0.174200,0.174200,0.174100,0.174000,0.173900,0.173800,0.173700,0.173700,0.173600,0.173600,0.173600,0.173500,0.173500,0.173500,0.173600,0.173600,0.173500,0.173500,0.173400,0.173300,0.173200,0.173000,0.173000,0.172800,0.172800,0.172800,0.172800,0.172700,0.172600,0.172500,0.172400,0.172400,0.172300,0.172200,0.172100,0.172100,0.172000,0.171900,0.171800,0.171800,0.171700,0.171600,0.171600,0.171500,0.171500,0.171400,0.171400,0.171200,0.171100,0.170900,0.170800,0.170800,0.170800,0.170800,0.170800,0.170800,0.170800,0.170700,0.170600,0.170400,0.170400,0.170200,0.170200,0.170200,0.170200,0.170100,0.170000,0.169900,0.169800,0.169700,0.169600,0.169500,0.169500,0.169500,0.169500,0.169500,0.169500,0.169500,0.169500,0.169400,0.169400,0.169300,0.169200,0.169200,0.169000,0.169000,0.168900,0.168800,0.168800,0.168700,0.168700,0.168600,0.168500,0.168300,0.168200,0.168100,0.168100,0.168100,0.168100,1.000000,1.000000,1.000000,1.000000,1.000000,1.000000,1.000000,1.000000,1.000000,1.000000,1.000000,1.000000,1.000000,1.000000,1.000000,1.000000,1.000000,1.000000,1.000000,1.000000,1.000000,1.000000,1.000000,1.000000,1.000000,1.000000,1.000000,1.000000,1.000000,1.000000,1.000000,1.000000,1.000000,1.000000,1.000000,1.000000,1.000000,1.000000,1.000000,1.000000,1.000000,1.000000,1.000000,1.000000,1.000000,1.000000,1.000000,1.000000,1.000000,1.000000,1.000000,1.000000,1.000000,1.000000,1.000000,1.000000,1.000000,1.000000,1.000000,1.000000,1.000000,1.000000,1.000000,1.000000,1.000000,1.000000,1.000000,1.000000,1.000000,1.000000,1.000000,1.000000,1.000000,1.000000
1.000000,1.000000,1.000000,1.000000,1.000000,1.000000,1.000000,1.000000,1.000000,1.000000,1.000000,1.000000,1.000000,1.000000,1.000000,1.000000,1.000000,1.000000,1.000000,1.000000,1.000000,1.000000,1.000000,1.000000,1.000000,1.000000,1.000000,1.000000,1.000000,0.178000,0.178000,0.177800,0.177800,0.177700,0.177600,0.177600,0.177500,0.177400,0.177400,0.177200,0.177100,0.177000,0.176900,0.176900,0.176900,0.176800,0.176800,0.176800,0.176800,0.176700,0.176700,0.176600,0.176500,0.176200,0.176000,0.175900,0.175700,0.175700,0.175700,0.175700,0.175800,0.175800,0.175900,0.175800,0.175300,0.175200,0.175200,0.175100,0.175100,0.175100,0.175100,0.175100,0.175100,0.175100,0.175100,0.175000,0.174900,0.174400,0.174300,0.174200,0.174200,0.174200,0.174100,0.174100,0.174100,0.174100,0.174000,0.173900,0.173900,0.173800,0.173800,0.173800,0.173600,0.173600,0.173500,0.173500,0.173500,0.173500,0.173500,0.173500,0.173400,0.173300,0.173300,0.173200,0.173000,0.172900,0.172800,0.172800,0.172700,0.172700,0.172600,0.172500,0.172400,0.172300,0.172300,0.172200,0.172100,0.172000,0.172000,0.171900,0.171800,0.171700,0.171700,0.171700,0.171600,0.171600,0.171500,0.171400,0.171400,0.171300,0.171300,0.171100,0.170900,0.170800,0.170800,0.170700,0.170700,0.170800,0.170800,0.170700,0.170600,0.170500,0.170400,0.170300,0.170200,0.170200,0.170200,0.170100,0.170100,0.170000,0.169800,0.169800,0.169600,0.169500,0.169500,0.169500,0.169500,0.169500,0.169500,0.169500,0.169500,0.169500,0.169400,0.169400,0.169200,0.169200,0.169100,0.169000,0.169000,0.168900,0.168800,0.168800,0.168700,0.168700,0.168600,0.168500,0.168300,0.168200,0.168100,0.168000,0.168000,0.168100,1.000000,1.000000,1.000000,1.000000,1.000000,1.000000,1.000000,1.000000,1.000000,1.000000,1.000000,1.000000,1.000000,1.000000,1.000000,1.000000,1.000000,1.000000,1.000000,1.000000,1.000000,1.000000,1.000000,1.000000,1.000000,1.000000,1.000000,1.000000,1.000000,1.000000,1.000000,1.000000,1.000000,0.217400,1.000000,1.000000,1.000000,1.000000,1.000000,1.000000,1.000000,1.000000,1.000000,1.000000,1.000000,1.000000,1.000000,1.000000,1.000000,1.000000,1.000000,1.000000,1.000000,1.000000,1.000000,1.000000,1.000000,1.000000,1.000000,1.000000,1.000000,1.000000,1.000000,1.000000,1.000000,1.000000,1.000000,1.000000,1.000000,1.000000,1.000000,1.000000,1.000000,1.000000
1.000000,1.000000,1.000000,1.000000,1.000000,1.000000,1.000000,1.000000,1.000000,1.000000,1.000000,1.000000,1.000000,1.000000,1.000000,1.000000,1.000000,1.000000,1.000000,1.000000,1.000000,1.000000,1.000000,1.000000,1.000000,1.000000,1.000000,1.000000,1.000000,0.178200,0.178000,0.177900,0.177800,0.177700,0.177600,0.177500,0.177200,0.177200,0.177200,0.177100,0.177100,0.176900,0.176800,0.176800,0.176700,0.176700,0.176700,0.176700,0.176700,0.176700,0.176700,0.176600,0.176500,0.176300,0.176100,0.176000,0.175900,0.175800,0.175800,0.175800,0.175900,0.175900,0.175800,0.175500,0.175300,0.175200,0.175200,0.175200,0.175100,0.175100,0.175100,0.175100,0.175100,0.175100,0.175000,0.175000,0.174700,0.174400,0.174200,0.174100,0.174100,0.174100,0.174100,0.174100,0.174100,0.174000,0.174000,0.174000,0.173900,0.173900,0.173800,0.173800,0.173700,0.173600,0.173500,0.173500,0.173400,0.173400,0.173400,0.173300,0.173300,0.173100,0.173100,0.173000,0.172900,0.172800,0.172700,0.172700,0.172600,0.172600,0.172500,0.172400,0.172300,0.172300,0.172200,0.172200,0.172100,0.172000,0.171900,0.171800,0.171800,0.171700,0.171700,0.171700,0.171600,0.171600,0.171500,0.171500,0.171400,0.171300,0.171300,0.171100,0.171000,0.170800,0.170800,0.170700,0.170700,0.170700,0.170700,0.170700,0.170600,0.170500,0.170400,0.170300,0.170200,0.170200,0.170100,0.170000,0.170000,0.169800,0.169700,0.169600,0.169400,0.169400,0.169400,0.169400,0.169400,0.169400,0.169500,0.169500,0.169400,0.169400,0.169300,0.169200,0.169000,0.169000,0.168900,0.168800,0.168800,0.168700,0.168700,0.168600,0.168600,0.168500,0.168500,0.168400,0.168300,0.168200,0.168100,0.168100,0.168100,0.168200,1.000000,0.208900,1.000000,1.000000,1.000000,1.000000,1.000000,1.000000,1.000000,1.000000,1.000000,1.000000,1.000000,1.000000,1.000000,1.000000,1.000000,1.000000,1.000000,1.000000,1.000000,1.000000,1.000000,1.000000,1.000000,1.000000,1.000000,1.000000,1.000000,1.000000,1.000000,1.000000,1.000000,1.000000,1.000000,1.000000,1.000000,1.000000,1.000000,1.000000,1.000000,1.000000,1.000000,1.000000,1.000000,0.208300,1.000000,1.000000,1.000000,1.000000,1.000000,1.000000,1.000000,1.000000,1.000000,1.000000,1.000000,1.000000,1.000000,1.000000,1.000000,1.000000,1.000000,1.000000,1.000000,1.000000,1.000000,1.000000,1.000000,1.000000,1.000000,1.000000,1.000000,1.000000
1.000000,1.000000,1.000000,1.000000,1.000000,1.000000,1.000000,1.000000,1.000000,1.000000,1.000000,1.000000,1.000000,1.000000,1.000000,1.000000,1.000000,1.000000,1.000000,1.000000,1.000000,1.000000,1.000000,1.000000,1.000000,1.000000,1.000000,1.000000,1.000000,1.000000,0.178200,0.178000,0.177900,0.177800,0.177600,0.177500,0.177100,0.177100,0.177100,0.177000,0.177000,0.176900,0.176800,0.176800,0.176700,0.176700,0.176700,0.176600,0.176600,0.176600,0.176600,0.176500,0.176500,0.176300,0.176200,0.176100,0.175900,0.175900,0.175900,0.175900,0.175800,0.175700,0.175600,0.175400,0.175300,0.175200,0.175200,0.175200,0.175200,0.175200,0.175200,0.175100,0.175100,0.175000,0.174900,0.174800,0.174600,0.174200,0.174100,0.174000,0.174000,0.174000,0.174100,0.174100,0.174100,0.174000,0.174000,0.173900,0.173900,0.173900,0.173800,0.173800,0.173700,0.173600,0.173500,0.173400,0.173400,0.173300,0.173300,0.173200,0.173100,0.173000,0.173000,0.173000,0.172900,0.172800,0.172700,0.172600,0.172600,0.172500,0.172400,0.172300,0.172200,0.172100,0.172100,0.172100,0.172000,0.171900,0.171800,0.171700,0.171700,0.171700,0.171700,0.171700,0.171600,0.171600,0.171500,0.171500,0.171400,0.171300,0.171300,0.171100,0.171000,0.170800,0.170800,0.170700,0.170600,0.170600,0.170600,0.170600,0.170500,0.170500,0.170300,0.170300,0.170200,0.170100,0.170100,0.170000,0.170000,0.169800,0.169700,0.169600,0.169400,0.169300,0.169300,0.169300,0.169300,0.169400,0.169400,0.169400,0.169400,0.169300,0.169200,0.169100,0.168900,0.168900,0.168800,0.168800,0.168700,0.168700,0.168600,0.168600,0.168500,0.168500,0.168400,0.168400,0.168300,0.168200,0.168200,0.168200,0.168200,0.168200,1.000000,0.205700,1.000000,1.000000,1.000000,1.000000,1.000000,1.000000,1.000000,1.000000,1.000000,1.000000,0.215700,0.215700,1.000000,1.000000,1.000000,1.000000,1.000000,1.000000,1.000000,1.000000,1.000000,1.000000,1.000000,1.000000,1.000000,1.000000,1.000000,1.000000,1.000000,1.000000,1.000000,1.000000,1.000000,1.000000,1.000000,1.000000,1.000000,1.000000,1.000000,1.000000,0.196000,0.196000,0.199500,1.000000,1.000000,0.208500,0.208500,0.208600,1.000000,1.000000,1.000000,1.000000,1.000000,1.000000,1.000000,1.000000,1.000000,1.000000,1.000000,1.000000,1.000000,1.000000,1.000000,1.000000,1.000000,1.000000,1.000000,1.000000,1.000000,1.000000,1.000000,1.000000
1.000000,1.000000,1.000000,1.000000,1.000000,1.000000,1.000000,1.000000,1.000000,1.000000,1.000000,1.000000,1.000000,1.000000,1.000000,1.000000,1.000000,1.000000,1.000000,1.000000,1.000000,1.000000,1.000000,1.000000,1.000000,1.000000,1.000000,1.000000,1.000000,0.178200,1.000000,0.178000,0.178000,0.177900,0.177700,0.177200,0.177000,0.177000,0.177000,0.177000,0.176900,0.176800,0.176800,0.176700,0.176700,0.176700,0.176700,0.176600,0.176600,0.176500,0.176500,0.176500,0.176400,0.176300,0.176200,0.176100,0.176000,0.176000,0.175900,0.175800,0.175800,0.175600,0.175500,0.175300,0.175300,0.175200,0.175200,0.175200,0.175200,0.175200,0.175200,0.175100,0.175100,0.174900,0.174800,0.174700,0.174500,0.174200,0.174100,0.174000,0.174000,0.174000,0.174100,0.174100,0.174100,0.174000,0.174000,0.173900,0.173900,0.173800,0.173800,0.173800,0.173600,0.173600,0.173400,0.173400,0.173300,0.173300,0.173200,0.173100,0.173100,0.173000,0.173000,0.172900,0.172900,0.172800,0.172700,0.172700,0.172600,0.172500,0.172400,0.172200,0.172100,0.172100,0.172100,0.172000,0.172000,0.171900,0.171800,0.171700,0.171700,0.171700,0.171700,0.171700,0.171700,0.171600,0.171500,0.171500,0.171400,0.171300,0.171300,0.171100,0.171000,0.170800,0.170700,0.170600,0.170600,0.170600,0.170600,0.170600,0.170500,0.170400,0.170300,0.170300,0.170200,0.170100,0.170100,0.170000,0.169900,0.169800,0.169700,0.169600,0.169400,0.169300,0.169300,0.169300,0.169300,0.169300,0.169400,0.169400,0.169300,0.169300,0.169100,0.169000,0.168800,0.168800,0.168700,0.168700,0.168600,0.168600,0.168500,0.168500,0.168400,0.168400,0.168400,0.168400,0.168300,0.168300,0.168200,0.168200,0.168200,0.168200,1.000000,1.000000,0.205700,1.000000,1.000000,1.000000,1.000000,1.000000,1.000000,1.000000,1.000000,0.215700,0.210400,0.210400,1.000000,1.000000,1.000000,1.000000,1.000000,1.000000,1.000000,1.000000,1.000000,1.000000,1.000000,1.000000,1.000000,1.000000,1.000000,1.000000,1.000000,1.000000,1.000000,1.000000,1.000000,1.000000,1.000000,1.000000,1.000000,1.000000,1.000000,1.000000,0.196000,0.196000,0.199500,1.000000,1.000000,0.208500,0.208500,0.206900,0.206600,0.206700,1.000000,1.000000,1.000000,1.000000,1.000000,1.000000,1.000000,1.000000,1.000000,1.000000,1.000000,1.000000,1.000000,1.000000,1.000000,1.000000,1.000000,1.000000,1.000000,1.000000,1.000000,1.000000
1.000000,1.000000,1.000000,1.000000,1.000000,1.000000,1.000000,1.000000,1.000000,1.000000,1.000000,1.000000,1.000000,1.000000,1.000000,1.000000,1.000000,1.000000,1.000000,1.000000,1.000000,1.000000,1.000000,1.000000,1.000000,1.000000,1.000000,1.000000,1.000000,1.000000,0.178200,0.178000,0.177900,0.177900,0.177700,0.177100,0.177000,0.176900,0.176900,0.176800,0.176800,0.176800,0.176800,0.176700,0.176700,0.176700,0.176700,0.176700,0.176600,0.176500,0.176500,0.176400,0.176300,0.176200,0.176200,0.176100,0.176000,0.176000,0.175900,0.175800,0.175700,0.175500,0.175400,0.175300,0.175200,0.175200,0.175200,0.175200,0.175200,0.175200,0.175200,0.175100,0.175000,0.174800,0.174700,0.174600,0.174500,0.174300,0.174100,0.174000,0.174000,0.174100,0.174100,0.174200,0.174100,0.174100,0.174000,0.173900,0.173900,0.173800,0.173700,0.173600,0.173500,0.173400,0.173300,0.173200,0.173200,0.173200,0.173100,0.173100,0.173000,0.173000,0.173000,0.173000,0.172900,0.172800,0.172700,0.172700,0.172600,0.172400,0.172400,0.172200,0.172100,0.172100,0.172000,0.172000,0.172000,0.171900,0.171800,0.171800,0.171700,0.171700,0.171700,0.171700,0.171700,0.171600,0.171500,0.171500,0.171300,0.171300,0.171200,0.171100,0.171000,0.170800,0.170700,0.170600,0.170500,0.170500,0.170500,0.170500,0.170400,0.170400,0.170300,0.170300,0.170200,0.170100,0.170100,0.170000,0.169900,0.169800,0.169700,0.169600,0.169400,0.169300,0.169300,0.169300,0.169200,0.169200,0.169200,0.169200,0.169200,0.169100,0.168900,0.168800,0.168700,0.168600,0.168600,0.168500,0.168500,0.168400,0.168400,0.168300,0.168300,0.168300,0.168300,0.168300,0.168300,0.168300,0.168200,0.168200,0.168300,0.168300,1.000000,0.198400,0.198400,1.000000,1.000000,1.000000,1.000000,1.000000,1.000000,1.000000,1.000000,1.000000,0.210400,0.207400,1.000000,1.000000,1.000000,1.000000,1.000000,1.000000,1.000000,1.000000,1.000000,1.000000,1.000000,0.205400,0.205400,0.205300,0.203200,0.201700,0.201600,1.000000,1.000000,1.000000,1.000000,1.000000,1.000000,1.000000,1.000000,1.000000,1.000000,1.000000,0.198500,0.198500,1.000000,1.000000,1.000000,1.000000,0.207500,0.206400,0.204800,1.000000,1.000000,1.000000,1.000000,1.000000,1.000000,1.000000,1.000000,1.000000,1.000000,1.000000,1.000000,1.000000,1.000000,1.000000,1.000000,1.000000,1.000000,1.000000,1.000000,1.000000,1.000000,1.000000
1.000000,1.000000,1.000000,1.000000,1.000000,1.000000,1.000000,1.000000,1.000000,1.000000,1.000000,1.000000,1.000000,1.000000,1.000000,1.000000,0.223800,1.000000,1.000000,1.000000,1.000000,1.000000,1.000000,1.000000,1.000000,1.000000,1.000000,1.000000,1.000000,1.000000,0.178000,0.177900,0.177900,0.177800,0.177700,0.177400,0.177000,0.176900,0.176900,0.176800,0.176800,0.176700,0.176700,0.176700,0.176700,0.176700,0.176700,0.176700,0.176500,0.176400,0.176300,0.176200,0.176100,0.176100,0.176000,0.176000,0.175900,0.175900,0.175700,0.175700,0.175600,0.175400,0.175400,0.175300,0.175200,0.175200,0.175200,0.175200,0.175200,0.175200,0.175200,0.174900,0.174700,0.174500,0.174500,0.174400,0.174400,0.174300,0.174100,0.174100,0.174100,0.174100,0.174200,0.174200,0.174300,0.174200,0.174100,0.173900,0.173900,0.173700,0.173700,0.173600,0.173400,0.173400,0.173200,0.173200,0.173100,0.173100,0.173100,0.173100,0.173100,0.173000,0.173000,0.173000,0.172900,0.172900,0.172800,0.172700,0.172600,0.172400,0.172400,0.172200,0.172100,0.172100,0.172000,0.172000,0.171900,0.171900,0.171800,0.171800,0.171700,0.171700,0.171600,0.171600,0.171600,0.171500,0.171400,0.171400,0.171300,0.171200,0.171200,0.171000,0.170900,0.170600,0.170600,0.170500,0.170400,0.170400,0.170400,0.170400,0.170300,0.170300,0.170300,0.170300,0.170200,0.170100,0.170100,0.170000,0.170000,0.169900,0.169800,0.169700,0.169500,0.169400,0.169300,0.169300,0.169200,0.169200,0.169200,0.169100,0.169100,0.169000,0.168800,0.168700,0.168600,0.168500,0.168500,0.168500,0.168400,0.168400,0.168300,0.168300,0.168300,0.168300,0.168300,0.168300,0.168300,0.168200,0.168200,0.168200,0.168300,0.168300,0.168300,0.179700,1.000000,1.000000,1.000000,1.000000,1.000000,1.000000,1.000000,1.000000,1.000000,1.000000,0.207300,0.207300,1.000000,1.000000,1.000000,1.000000,1.000000,1.000000,1.000000,1.000000,1.000000,1.000000,0.201500,1.000000,1.000000,0.204700,0.201000,0.201100,0.201600,1.000000,1.000000,1.000000,1.000000,1.000000,1.000000,1.000000,1.000000,1.000000,1.000000,1.000000,1.000000,1.000000,1.000000,1.000000,1.000000,1.000000,1.000000,1.000000,1.000000,1.000000,0.202900,1.000000,1.000000,1.000000,1.000000,1.000000,1.000000,1.000000,1.000000,1.000000,1.000000,1.000000,1.000000,1.000000,1.000000,1.000000,1.000000,1.000000,1.000000,1.000000,1.000000,1.000000
1.000000,1.000000,1.000000,1.000000,1.000000,1.000000,1.000000,1.000000,1.000000,1.000000,1.000000,1.000000,1.000000,1.000000,1.000000,0.223800,1.000000,1.000000,1.000000,1.000000,1.000000,1.000000,1.000000,1.000000,1.000000,1.000000,1.000000,1.000000,1.000000,0.177900,0.177900,0.177800,0.177700,0.177700,0.177600,0.177400,0.177000,0.176900,0.176900,0.176700,0.176700,0.176700,0.176700,0.176700,0.176800,0.176800,0.176800,0.176700,0.176500,0.176300,0.176200,0.176100,0.176100,0.176000,0.175900,0.175900,0.175800,0.175800,0.175700,0.175600,0.175600,0.175400,0.175400,0.175300,0.175200,0.175200,0.175200,0.175200,0.175200,0.175100,0.175100,0.174800,0.174600,0.174400,0.174400,0.174400,0.174400,0.174300,0.174200,0.174200,0.174100,0.174100,0.174200,0.174200,0.174200,0.174200,0.174100,0.173900,0.173800,0.173700,0.173700,0.173600,0.173400,0.173300,0.173100,0.173100,0.173100,0.173100,0.173100,0.173000,0.173000,0.173000,0.173000,0.173000,0.172900,0.172900,0.172700,0.172600,0.172600,0.172400,0.172300,0.172200,0.172100,0.172100,0.172000,0.172000,0.171900,0.171900,0.171800,0.171700,0.171700,0.171600,0.171600,0.171600,0.171500,0.171500,0.171400,0.171300,0.171200,0.171200,0.171100,0.171000,0.170800,0.170600,0.170500,0.170500,0.170400,0.170400,0.170300,0.170300,0.170300,0.170200,0.170200,0.170200,0.170200,0.170100,0.170100,0.170000,0.170000,0.169900,0.169800,0.169700,0.169500,0.169400,0.169300,0.169300,0.169200,0.169100,0.169000,0.169000,0.168900,0.168800,0.168700,0.168600,0.168500,0.168500,0.168500,0.168400,0.168400,0.168300,0.168300,0.168200,0.168200,0.168200,0.168200,0.168200,0.168100,0.168100,0.168100,0.168200,0.168300,0.168300,0.168400,1.000000,0.179800,1.000000,0.197100,0.197100,1.000000,1.000000,1.000000,1.000000,1.000000,1.000000,1.000000,0.205600,1.000000,1.000000,1.000000,1.000000,1.000000,1.000000,1.000000,1.000000,1.000000,1.000000,0.201600,0.201600,1.000000,1.000000,0.199100,1.000000,1.000000,1.000000,1.000000,1.000000,1.000000,0.198900,1.000000,1.000000,1.000000,1.000000,1.000000,1.000000,1.000000,1.000000,1.000000,1.000000,1.000000,1.000000,1.000000,1.000000,1.000000,1.000000,1.000000,1.000000,1.000000,1.000000,1.000000,1.000000,1.000000,1.000000,1.000000,1.000000,1.000000,1.000000,1.000000,1.000000,1.000000,1.000000,1.000000,1.000000,1.000000,1.000000,1.000000,1.000000
1.000000,1.000000,1.000000,1.000000,1.000000,1.000000,1.000000,1.000000,1.000000,1.000000,1.000000,1.000000,1.000000,1.000000,1.000000,1.000000,1.000000,1.000000,1.000000,1.000000,1.000000,1.000000,1.000000,1.000000,1.000000,1.000000,1.000000,1.000000,1.000000,0.177700,0.177700,0.177700,0.177600,0.177600,0.177500,0.177200,0.177000,0.176900,0.176900,0.176700,0.176700,0.176700,0.176700,0.176800,0.176800,0.176900,0.176800,0.176700,0.176300,0.176200,0.176100,0.176000,0.176000,0.175900,0.175800,0.175800,0.175700,0.175700,0.175600,0.175500,0.175500,0.175400,0.175400,0.175300,0.175200,0.175200,0.175200,0.175100,0.175000,0.175000,0.174900,0.174700,0.174600,0.174400,0.174300,0.174300,0.174300,0.174300,0.174200,0.174100,0.174100,0.174100,0.174100,0.174100,0.174200,0.174100,0.174000,0.173900,0.173800,0.173800,0.173700,0.173600,0.173400,0.173300,0.173100,0.173100,0.173000,0.173000,0.173000,0.173000,0.173000,0.173000,0.173000,0.173000,0.172900,0.172800,0.172700,0.172600,0.172500,0.172400,0.172300,0.172200,0.172100,0.172000,0.171900,0.171900,0.171800,0.171800,0.171700,0.171600,0.171600,0.171500,0.171400,0.171400,0.171300,0.171300,0.171200,0.171200,0.171100,0.171000,0.171000,0.170800,0.170700,0.170500,0.170500,0.170400,0.170400,0.170400,0.170300,0.170200,0.170200,0.170100,0.170100,0.170100,0.170100,0.170000,0.170000,0.170000,0.170000,0.170000,0.169800,0.169800,0.169600,0.169500,0.169400,0.169300,0.169300,0.169100,0.169000,0.168800,0.168800,0.168700,0.168600,0.168600,0.168500,0.168500,0.168500,0.168400,0.168400,0.168300,0.168200,0.168200,0.168200,0.168100,0.168100,0.168100,0.168000,0.168000,0.168100,0.168100,0.168300,0.168200,0.168300,1.000000,0.179800,0.194800,0.197100,0.197100,1.000000,1.000000,1.000000,1.000000,1.000000,1.000000,1.000000,1.000000,1.000000,1.000000,1.000000,1.000000,1.000000,1.000000,1.000000,1.000000,1.000000,1.000000,0.198900,0.198900,1.000000,1.000000,0.193500,1.000000,1.000000,1.000000,1.000000,1.000000,0.193300,0.195300,1.000000,1.000000,1.000000,1.000000,1.000000,1.000000,1.000000,1.000000,1.000000,1.000000,1.000000,1.000000,1.000000,1.000000,1.000000,1.000000,1.000000,1.000000,1.000000,1.000000,1.000000,1.000000,1.000000,1.000000,1.000000,1.000000,1.000000,1.000000,1.000000,1.000000,1.000000,1.000000,1.000000,1.000000,1.000000,1.000000,1.000000,1.000000
1.000000,1.000000,1.000000,1.000000,1.000000,1.000000,1.000000,1.000000,1.000000,1.000000,1.000000,1.000000,1.000000,1.000000,1.000000,1.000000,1.000000,1.000000,1.000000,1.000000,1.000000,1.000000,1.000000,1.000000,1.000000,1.000000,1.000000,1.000000,1.000000,1.000000,0.177500,0.177400,0.177400,0.177300,0.177100,0.177000,0.176900,0.176900,0.176800,0.176700,0.176600,0.176600,0.176700,0.176800,0.176900,0.176900,0.176800,0.176700,0.176100,0.176100,0.176100,0.176000,0.176000,0.175900,0.175800,0.175800,0.175600,0.175600,0.175500,0.175500,0.175500,0.175400,0.175400,0.175400,0.175300,0.175300,0.175200,0.175100,0.175000,0.174900,0.174800,0.174700,0.174600,0.174400,0.174300,0.174300,0.174300,0.174200,0.174200,0.174100,0.174000,0.174000,0.174000,0.174000,0.174000,0.173900,0.173900,0.173800,0.173800,0.173800,0.173800,0.173700,0.173500,0.173200,0.173100,0.173000,0.173000,0.172900,0.172900,0.172900,0.172900,0.172900,0.172900,0.172900,0.172800,0.172700,0.172600,0.172500,0.172400,0.172300,0.172200,0.172100,0.172000,0.172000,0.171900,0.171800,0.171700,0.171700,0.171600,0.171500,0.171500,0.171400,0.171400,0.171300,0.171300,0.171300,0.171200,0.171200,0.171000,0.171000,0.170900,0.170800,0.170600,0.170500,0.170500,0.170400,0.170400,0.170400,0.170200,0.170200,0.170100,0.170100,0.170000,0.170000,0.170000,0.170000,0.170000,0.170000,0.170000,0.169900,0.169800,0.169700,0.169600,0.169500,0.169400,0.169300,0.169200,0.169000,0.168900,0.168700,0.168600,0.168600,0.168500,0.168500,0.168500,0.168500,0.168500,0.168400,0.168400,0.168300,0.168200,0.168200,0.168100,0.168100,0.168000,0.168000,0.168000,0.168000,0.168000,0.168000,0.168100,0.168100,0.168200,1.000000,1.000000,0.195400,0.194800,0.195600,0.195600,1.000000,1.000000,1.000000,1.000000,1.000000,1.000000,1.000000,1.000000,1.000000,1.000000,1.000000,1.000000,1.000000,1.000000,1.000000,1.000000,1.000000,0.194600,0.194600,1.000000,1.000000,0.190800,0.189500,0.188700,0.187200,1.000000,1.000000,0.191000,0.195500,1.000000,1.000000,1.000000,1.000000,1.000000,1.000000,1.000000,1.000000,1.000000,1.000000,1.000000,1.000000,1.000000,1.000000,1.000000,1.000000,1.000000,1.000000,1.000000,1.000000,1.000000,1.000000,1.000000,1.000000,1.000000,1.000000,1.000000,1.000000,1.000000,1.000000,1.000000,1.000000,1.000000,1.000000,1.000000,1.000000,1.000000,1.000000
1.000000,1.000000,1.000000,1.000000,1.000000,1.000000,1.000000,1.000000,1.000000,1.000000,1.000000,1.000000,1.000000,1.000000,1.000000,1.000000,1.000000,1.000000,1.000000,1.000000,1.000000,1.000000,1.000000,1.000000,1.000000,1.000000,1.000000,1.000000,1.000000,1.000000,0.177400,0.177300,0.177200,0.177200,0.177000,0.177000,0.176900,0.176900,0.176800,0.176700,0.176600,0.176600,0.176800,0.176800,0.176900,0.176900,0.176800,0.176600,0.176000,0.176000,0.176000,0.176000,0.176000,0.175900,0.175800,0.175800,0.175600,0.175600,0.175500,0.175400,0.175400,0.175400,0.175400,0.175400,0.175300,0.175300,0.175200,0.175100,0.174900,0.174900,0.174800,0.174600,0.174500,0.174400,0.174300,0.174300,0.174300,0.174300,0.174200,0.174100,0.174000,0.173900,0.173900,0.173900,0.173900,0.173800,0.173800,0.173800,0.173800,0.173800,0.173800,0.173800,0.173500,0.173100,0.173000,0.173000,0.172900,0.172900,0.172900,0.172900,0.172900,0.172900,0.172900,0.172900,0.172700,0.172600,0.172500,0.172400,0.172400,0.172200,0.172200,0.172000,0.172000,0.171900,0.171800,0.171800,0.171700,0.171600,0.171600,0.171500,0.171400,0.171300,0.171300,0.171300,0.171300,0.171300,0.171200,0.171100,0.171000,0.170900,0.170800,0.170700,0.170600,0.170500,0.170500,0.170400,0.170400,0.170300,0.170200,0.170100,0.170100,0.170000,0.170000,0.169900,0.169900,0.169900,0.169900,0.169900,0.169900,0.169800,0.169800,0.169700,0.169500,0.169500,0.169300,0.169200,0.169200,0.169000,0.168800,0.168700,0.168600,0.168500,0.168500,0.168500,0.168500,0.168500,0.168500,0.168400,0.168400,0.168300,0.168200,0.168200,0.168100,0.168000,0.168000,0.168000,0.167900,0.167900,0.167900,0.167900,0.168000,0.168000,0.168100,1.000000,1.000000,1.000000,0.194600,0.194500,0.194400,0.194400,1.000000,1.000000,0.191300,1.000000,0.191200,1.000000,1.000000,1.000000,1.000000,1.000000,1.000000,1.000000,1.000000,1.000000,1.000000,0.193500,0.194600,0.194600,1.000000,1.000000,0.187200,0.187200,0.187200,0.187200,1.000000,0.185900,1.000000,0.193300,1.000000,1.000000,1.000000,1.000000,0.191700,0.191700,1.000000,1.000000,1.000000,1.000000,1.000000,1.000000,1.000000,1.000000,1.000000,1.000000,1.000000,1.000000,1.000000,1.000000,1.000000,1.000000,1.000000,1.000000,1.000000,1.000000,1.000000,1.000000,1.000000,1.000000,1.000000,1.000000,1.000000,1.000000,1.000000,1.000000,1.000000,1.000000
1.000000,1.000000,1.000000,1.000000,1.000000,1.000000,1.000000,1.000000,1.000000,1.000000,1.000000,1.000000,1.000000,1.000000,0.198300,1.000000,1.000000,1.000000,1.000000,1.000000,1.000000,1.000000,1.000000,1.000000,1.000000,1.000000,1.000000,1.000000,1.000000,1.000000,0.177200,0.177200,0.177100,0.177100,0.177000,0.176900,0.176900,0.176800,0.176800,0.176700,0.176600,0.176600,0.176800,0.176900,0.176900,0.176800,0.176100,0.176000,0.175900,0.175900,0.175900,0.175900,0.176000,0.175900,0.175800,0.175700,0.175600,0.175500,0.175400,0.175400,0.175400,0.175400,0.175400,0.175400,0.175400,0.175300,0.175200,0.175100,0.174900,0.174800,0.174700,0.174500,0.174400,0.174300,0.174300,0.174300,0.174300,0.174300,0.174200,0.174100,0.174000,0.173900,0.173800,0.173800,0.173800,0.173800,0.173800,0.173700,0.173700,0.173800,0.173800,0.173800,0.173100,0.173100,0.173000,0.172900,0.172900,0.172800,0.172800,0.172800,0.172800,0.172800,0.172800,0.172800,0.172700,0.172600,0.172400,0.172400,0.172300,0.172200,0.172100,0.172000,0.171900,0.171800,0.171800,0.171600,0.171600,0.171500,0.171500,0.171400,0.171300,0.171300,0.171300,0.171300,0.171300,0.171200,0.171200,0.171100,0.171000,0.170900,0.170800,0.170600,0.170500,0.170500,0.170400,0.170400,0.170300,0.170200,0.170100,0.170000,0.170000,0.169900,0.169800,0.169800,0.169800,0.169700,0.169700,0.169800,0.169800,0.169800,0.169700,0.169700,0.169500,0.169400,0.169300,0.169200,0.169100,0.168900,0.168800,0.168600,0.168500,0.168500,0.168500,0.168500,0.168500,0.168500,0.168500,0.168400,0.168400,0.168300,0.168200,0.168200,0.168100,0.168000,0.168000,0.168000,0.167900,0.167900,0.167900,0.167900,0.168000,0.168000,0.168000,0.180300,0.182100,0.183300,0.187100,0.191900,1.000000,1.000000,1.000000,1.000000,0.191300,0.188200,0.186400,0.186400,0.186400,1.000000,1.000000,1.000000,1.000000,1.000000,1.000000,1.000000,1.000000,1.000000,1.000000,1.000000,1.000000,1.000000,1.000000,1.000000,0.187100,0.187100,1.000000,1.000000,0.188900,1.000000,1.000000,1.000000,0.191700,1.000000,0.191700,0.191100,1.000000,1.000000,1.000000,1.000000,1.000000,1.000000,1.000000,1.000000,1.000000,1.000000,1.000000,1.000000,1.000000,1.000000,1.000000,1.000000,1.000000,1.000000,1.000000,1.000000,1.000000,1.000000,1.000000,0.187100,1.000000,0.185600,1.000000,1.000000,1.000000,1.000000,1.000000,1.000000
0.196500,1.000000,1.000000,1.000000,1.000000,1.000000,1.000000,1.000000,1.000000,1.000000,1.000000,1.000000,1.000000,1.000000,0.198300,0.198300,1.000000,1.000000,1.000000,1.000000,1.000000,1.000000,1.000000,1.000000,1.000000,1.000000,1.000000,1.000000,1.000000,0.177100,0.177200,0.177000,0.177000,0.177000,0.176900,0.176900,0.176900,0.176800,0.176800,0.176700,0.176600,0.176700,0.176900,0.176900,0.176200,0.176100,0.176000,0.175900,0.175900,0.175900,0.175900,0.175900,0.175900,0.175800,0.175800,0.175700,0.175500,0.175500,0.175400,0.175400,0.175400,0.175400,0.175400,0.175400,0.175400,0.175400,0.175200,0.175100,0.174900,0.174700,0.174600,0.174400,0.174400,0.174300,0.174300,0.174300,0.174300,0.174300,0.174200,0.174100,0.173900,0.173900,0.173800,0.173700,0.173700,0.173700,0.173700,0.173600,0.173700,0.173700,0.173800,0.173800,0.173100,0.173000,0.172900,0.172800,0.172800,0.172700,0.172700,0.172700,0.172700,0.172700,0.172700,0.172600,0.172500,0.172400,0.172400,0.172300,0.172300,0.172100,0.172100,0.171900,0.171800,0.171800,0.171600,0.171600,0.171500,0.171500,0.171400,0.171300,0.171300,0.171200,0.171200,0.171200,0.171200,0.171200,0.171100,0.171100,0.170900,0.170800,0.170800,0.170600,0.170500,0.170400,0.170400,0.170400,0.170300,0.170200,0.170000,0.169900,0.169900,0.169800,0.169800,0.169700,0.169700,0.169700,0.169700,0.169700,0.169800,0.169700,0.169700,0.169600,0.169500,0.169300,0.169200,0.169100,0.169000,0.168800,0.168700,0.168600,0.168500,0.168400,0.168400,0.168500,0.168500,0.168500,0.168500,0.168400,0.168400,0.168300,0.168200,0.168200,0.168100,0.168000,0.168000,0.167900,0.167800,0.167800,0.167800,0.167800,0.167900,0.168000,0.168300,0.181900,0.182600,0.183300,0.183500,0.187100,0.187200,1.000000,1.000000,1.000000,0.188200,0.184500,0.184300,0.185300,1.000000,1.000000,0.187400,0.188600,1.000000,0.190600,0.190600,0.189200,1.000000,1.000000,1.000000,1.000000,1.000000,0.181900,0.181900,0.183800,1.000000,0.187000,1.000000,0.184600,1.000000,1.000000,1.000000,1.000000,1.000000,0.191800,0.191800,1.000000,1.000000,1.000000,1.000000,1.000000,1.000000,1.000000,1.000000,1.000000,1.000000,1.000000,1.000000,1.000000,1.000000,1.000000,1.000000,1.000000,1.000000,1.000000,1.000000,1.000000,1.000000,1.000000,1.000000,0.187100,1.000000,1.000000,1.000000,1.000000,1.000000,1.000000,1.000000,1.000000
0.196100,0.196100,1.000000,1.000000,1.000000,1.000000,1.000000,1.000000,1.000000,1.000000,1.000000,1.000000,1.000000,1.000000,1.000000,0.197200,1.000000,1.000000,1.000000,1.000000,1.000000,1.000000,1.000000,1.000000,1.000000,1.000000,1.000000,1.000000,1.000000,1.000000,0.177100,0.177000,0.177000,0.177000,0.176900,0.176900,0.176900,0.176900,0.176800,0.176700,0.176700,0.176700,0.176900,0.176900,0.176100,0.176100,0.176000,0.175900,0.175900,0.175900,0.175900,0.175900,0.175800,0.175700,0.175600,0.175600,0.175400,0.175400,0.175400,0.175400,0.175400,0.175400,0.175400,0.175400,0.175400,0.175400,0.175200,0.175200,0.174800,0.174600,0.174500,0.174300,0.174300,0.174200,0.174200,0.174200,0.174200,0.174200,0.174100,0.174000,0.173900,0.173800,0.173700,0.173600,0.173600,0.173600,0.173600,0.173600,0.173600,0.173700,0.173700,0.173700,0.173700,0.173000,0.172900,0.172800,0.172700,0.172600,0.172600,0.172600,0.172600,0.172600,0.172600,0.172600,0.172400,0.172400,0.172300,0.172300,0.172300,0.172100,0.172000,0.171900,0.171800,0.171700,0.171600,0.171600,0.171500,0.171400,0.171400,0.171300,0.171200,0.171100,0.171100,0.171100,0.171100,0.171100,0.171000,0.171000,0.170800,0.170700,0.170600,0.170500,0.170400,0.170400,0.170300,0.170300,0.170200,0.170100,0.169900,0.169800,0.169800,0.169700,0.169700,0.169600,0.169600,0.169600,0.169600,0.169600,0.169600,0.169600,0.169600,0.169500,0.169400,0.169300,0.169100,0.169000,0.169000,0.168800,0.168700,0.168500,0.168500,0.168400,0.168400,0.168500,0.168500,0.168500,0.168500,0.168400,0.168400,0.168300,0.168200,0.168200,0.168100,0.168000,0.167900,0.167900,0.167800,0.167800,0.167800,0.167800,0.167900,0.168000,0.168700,0.180900,0.182200,0.183100,0.183400,0.183600,0.184400,1.000000,1.000000,1.000000,1.000000,1.000000,0.184000,0.185100,0.186400,1.000000,1.000000,1.000000,1.000000,1.000000,0.190500,1.000000,0.184800,1.000000,0.184900,1.000000,1.000000,0.181800,0.181800,0.181800,0.183800,1.000000,1.000000,1.000000,1.000000,1.000000,1.000000,1.000000,1.000000,0.187600,0.187600,1.000000,1.000000,1.000000,1.000000,1.000000,1.000000,0.181700,0.181500,0.180100,1.000000,1.000000,1.000000,1.000000,1.000000,1.000000,1.000000,1.000000,1.000000,1.000000,1.000000,1.000000,1.000000,1.000000,1.000000,0.181000,1.000000,0.177700,1.000000,1.000000,1.000000,1.000000,1.000000,1.000000
0.193700,0.193700,1.000000,1.000000,1.000000,1.000000,1.000000,1.000000,0.192500,1.000000,1.000000,1.000000,1.000000,1.000000,1.000000,0.190200,0.193600,1.000000,1.000000,1.000000,1.000000,1.000000,1.000000,1.000000,1.000000,1.000000,1.000000,1.000000,1.000000,0.177100,0.177100,0.177000,0.177000,0.177000,0.176900,0.176900,0.176900,0.176900,0.176800,0.176700,0.176700,0.176700,0.176900,0.176900,0.176100,0.176100,0.176000,0.176000,0.176000,0.176000,0.175900,0.175900,0.175800,0.175700,0.175600,0.175500,0.175400,0.175400,0.175300,0.175300,0.175300,0.175300,0.175300,0.175300,0.175300,0.175300,0.175200,0.175200,0.174800,0.174600,0.174500,0.174300,0.174300,0.174200,0.174200,0.174200,0.174100,0.174100,0.174000,0.174000,0.173900,0.173800,0.173700,0.173600,0.173500,0.173500,0.173400,0.173400,0.173400,0.173500,0.173600,0.173600,0.173500,0.173100,0.172900,0.172800,0.172600,0.172600,0.172500,0.172500,0.172600,0.172600,0.172500,0.172500,0.172400,0.172300,0.172300,0.172200,0.172200,0.172100,0.172000,0.171800,0.171700,0.171600,0.171600,0.171500,0.171500,0.171400,0.171400,0.171200,0.171200,0.171100,0.171000,0.171000,0.171000,0.171000,0.170900,0.170800,0.170700,0.170600,0.170600,0.170400,0.170400,0.170300,0.170300,0.170300,0.170100,0.170000,0.169800,0.169800,0.169700,0.169600,0.169600,0.169500,0.169500,0.169500,0.169500,0.169600,0.169600,0.169600,0.169500,0.169400,0.169300,0.169200,0.169100,0.169000,0.168900,0.168800,0.168700,0.168500,0.168500,0.168400,0.168400,0.168500,0.168500,0.168500,0.168500,0.168400,0.168400,0.168200,0.168200,0.168100,0.168000,0.167900,0.167800,0.167800,0.167800,0.167800,0.167800,0.167800,0.167900,0.168000,0.168700,0.179300,0.180500,0.182300,0.182400,1.000000,0.184000,0.184300,1.000000,1.000000,1.000000,1.000000,0.183900,0.184000,1.000000,1.000000,1.000000,1.000000,1.000000,1.000000,0.188500,1.000000,0.182200,0.182200,0.183800,1.000000,0.181700,0.180300,0.180300,0.180300,0.181800,1.000000,1.000000,1.000000,1.000000,0.180800,0.180800,0.182500,0.183900,1.000000,0.186100,1.000000,1.000000,1.000000,1.000000,1.000000,1.000000,1.000000,0.181600,1.000000,0.176500,1.000000,0.176500,1.000000,1.000000,1.000000,1.000000,1.000000,1.000000,1.000000,1.000000,1.000000,1.000000,1.000000,1.000000,0.181000,1.000000,1.000000,0.179000,1.000000,1.000000,1.000000,1.000000,1.000000
0.193700,0.193700,1.000000,1.000000,1.000000,1.000000,1.000000,1.000000,0.189800,1.000000,0.188300,1.000000,1.000000,1.000000,1.000000,0.190200,0.193600,1.000000,1.000000,1.000000,1.000000,1.000000,1.000000,1.000000,1.000000,1.000000,1.000000,1.000000,1.000000,1.000000,0.177200,0.177000,0.177000,0.177000,0.177000,0.177000,0.176900,0.176900,0.176800,0.176700,0.176700,0.176700,0.176900,0.176900,0.176200,0.176100,0.176100,0.176000,0.176000,0.176000,0.176000,0.175900,0.175800,0.175700,0.175600,0.175500,0.175400,0.175300,0.175300,0.175300,0.175300,0.175200,0.175200,0.175200,0.175200,0.175200,0.175200,0.175200,0.174900,0.174600,0.174500,0.174400,0.174300,0.174200,0.174200,0.174100,0.174100,0.174100,0.174000,0.173900,0.173800,0.173800,0.173700,0.173500,0.173400,0.173400,0.173400,0.173400,0.173400,0.173400,0.173400,0.173400,0.173400,0.173100,0.172900,0.172800,0.172600,0.172600,0.172500,0.172500,0.172600,0.172600,0.172500,0.172400,0.172300,0.172300,0.172200,0.172200,0.172200,0.172100,0.172000,0.171800,0.171700,0.171600,0.171600,0.171500,0.171400,0.171400,0.171300,0.171200,0.171100,0.171000,0.171000,0.171000,0.170900,0.170900,0.170800,0.170800,0.170600,0.170600,0.170500,0.170400,0.170300,0.170300,0.170300,0.170200,0.170100,0.170000,0.169800,0.169800,0.169700,0.169600,0.169600,0.169500,0.169500,0.169500,0.169500,0.169600,0.169600,0.169500,0.169500,0.169300,0.169200,0.169100,0.169000,0.169000,0.168900,0.168800,0.168700,0.168600,0.168500,0.168400,0.168400,0.168500,0.168500,0.168600,0.168500,0.168400,0.168400,0.168200,0.168100,0.168000,0.167900,0.167800,0.167800,0.167800,0.167800,0.167800,0.167800,0.167800,0.167900,0.167900,0.168000,0.176600,0.179200,0.179200,1.000000,1.000000,0.181600,0.181800,1.000000,1.000000,1.000000,1.000000,0.183800,0.183800,1.000000,1.000000,1.000000,0.186000,1.000000,1.000000,1.000000,1.000000,0.182200,0.182200,0.180600,1.000000,0.178800,0.178800,0.178800,0.178800,0.180400,1.000000,1.000000,1.000000,1.000000,0.180800,0.180800,0.182500,0.182500,1.000000,0.186200,1.000000,1.000000,1.000000,1.000000,1.000000,1.000000,0.182400,0.181600,1.000000,0.176600,1.000000,0.176500,1.000000,1.000000,1.000000,1.000000,1.000000,1.000000,1.000000,1.000000,1.000000,1.000000,1.000000,1.000000,1.000000,1.000000,0.177700,0.177700,1.000000,1.000000,1.000000,0.180800,0.180800
1.000000,1.000000,1.000000,1.000000,1.000000,1.000000,1.000000,1.000000,1.000000,1.000000,1.000000,1.000000,1.000000,1.000000,1.000000,1.000000,1.000000,1.000000,1.000000,1.000000,1.000000,1.000000,1.000000,1.000000,1.000000,1.000000,1.000000,1.000000,1.000000,0.178800,0.177400,0.177200,0.177200,0.177200,0.177200,0.177200,0.177100,0.177000,0.177000,0.176800,0.176800,0.176800,0.176900,0.176800,0.176700,0.176400,0.176200,0.176200,0.176100,0.176000,0.176000,0.175900,0.175900,0.175700,0.175600,0.175400,0.175300,0.175200,0.175200,0.175200,0.175200,0.175100,0.175000,0.174900,0.174900,0.175000,0.175000,0.175100,0.174900,0.174700,0.174600,0.174400,0.174400,0.174300,0.174200,0.174200,0.174100,0.174000,0.174000,0.173900,0.173800,0.173700,0.173600,0.173400,0.173400,0.173300,0.173300,0.173300,0.173300,0.173300,0.173300,0.173300,0.173300,0.173200,0.173100,0.172800,0.172600,0.172600,0.172500,0.172500,0.172600,0.172600,0.172500,0.172400,0.172300,0.172300,0.172200,0.172100,0.172100,0.172000,0.172000,0.171800,0.171700,0.171600,0.171500,0.171500,0.171400,0.171300,0.171300,0.171200,0.171100,0.171000,0.171000,0.170900,0.170800,0.170800,0.170600,0.170600,0.170500,0.170500,0.170400,0.170300,0.170300,0.170200,0.170200,0.170100,0.170000,0.169900,0.169800,0.169700,0.169700,0.169600,0.169500,0.169500,0.169500,0.169500,0.169500,0.169500,0.169500,0.169500,0.169400,0.169300,0.169200,0.169000,0.168900,0.168900,0.168800,0.168800,0.168800,0.168700,0.168600,0.168600,0.168500,0.168600,0.168600,0.168600,0.168600,0.168500,0.168400,0.168200,0.168100,0.168000,0.167800,0.167800,0.167700,0.167700,0.167700,0.167700,0.167700,0.167800,0.167800,0.167900,0.167900,0.172700,0.176600,0.176600,0.176700,1.000000,1.000000,1.000000,1.000000,0.179800,0.179700,0.179700,0.179800,1.000000,1.000000,1.000000,0.184100,0.182800,1.000000,1.000000,0.179200,0.178900,0.176700,0.176200,0.176000,1.000000,0.175600,0.175600,0.176400,0.177500,1.000000,1.000000,1.000000,1.000000,1.000000,1.000000,0.180800,0.180800,0.182500,0.182500,1.000000,1.000000,1.000000,1.000000,1.000000,0.175900,1.000000,1.000000,1.000000,1.000000,1.000000,1.000000,0.176600,0.176600,0.176600,1.000000,1.000000,1.000000,1.000000,1.000000,0.173400,1.000000,0.175700,0.179200,1.000000,0.181000,1.000000,0.177700,0.176200,0.176200,0.176200,0.176300,0.176400,0.177400
1.000000,1.000000,1.000000,1.000000,1.000000,1.000000,1.000000,1.000000,1.000000,0.183800,0.183800,0.186700,1.000000,1.000000,1.000000,1.000000,1.000000,1.000000,1.000000,1.000000,1.000000,1.000000,1.000000,1.000000,1.000000,1.000000,0.189400,1.000000,1.000000,0.178200,0.177800,0.177300,0.177300,0.177200,0.177200,0.177200,0.177200,0.177200,0.177100,0.176900,0.176900,0.176800,0.176800,0.176800,0.176700,0.176600,0.176300,0.176200,0.176100,0.176000,0.176000,0.175900,0.175900,0.175900,0.175800,0.175400,0.175300,0.175200,0.175200,0.175200,0.175200,0.175100,0.175000,0.174800,0.174900,0.174900,0.174900,0.175000,0.174900,0.174900,0.174800,0.174600,0.174500,0.174400,0.174300,0.174200,0.174100,0.174100,0.174000,0.174000,0.173800,0.173700,0.173600,0.173400,0.173300,0.173200,0.173200,0.173200,0.173200,0.173200,0.173200,0.173200,0.173200,0.173200,0.173100,0.172900,0.172800,0.172600,0.172600,0.172600,0.172600,0.172600,0.172500,0.172400,0.172300,0.172200,0.172100,0.172000,0.172000,0.172000,0.171900,0.171800,0.171700,0.171600,0.171500,0.171500,0.171400,0.171300,0.171300,0.171200,0.171200,0.171100,0.171000,0.170900,0.170800,0.170700,0.170600,0.170600,0.170500,0.170400,0.170400,0.170300,0.170200,0.170200,0.170100,0.170100,0.170000,0.169900,0.169800,0.169700,0.169700,0.169600,0.169500,0.169500,0.169500,0.169500,0.169500,0.169500,0.169500,0.169500,0.169400,0.169200,0.169000,0.168800,0.168800,0.168800,0.168800,0.168800,0.168800,0.168800,0.168700,0.168700,0.168600,0.168600,0.168700,0.168700,0.168600,0.168500,0.168400,0.168200,0.168000,0.167900,0.167700,0.167700,0.167600,0.167600,0.167500,0.167500,0.167600,0.167600,0.167700,0.167800,0.167800,0.172600,0.176600,0.176600,0.175700,0.175700,0.175700,1.000000,0.178700,0.178500,0.178500,0.177700,0.175500,0.175400,0.175400,1.000000,1.000000,0.178400,0.178300,0.178100,0.178100,1.000000,0.176200,0.176100,0.176000,0.175600,0.175500,0.175500,0.175500,0.174200,0.174100,0.173300,0.173300,1.000000,1.000000,0.178900,0.175200,0.179100,0.176500,0.175800,0.175800,1.000000,1.000000,1.000000,1.000000,0.175700,0.175800,0.175900,1.000000,1.000000,0.176600,0.176600,1.000000,1.000000,1.000000,0.175500,1.000000,1.000000,1.000000,0.173300,1.000000,1.000000,1.000000,1.000000,1.000000,1.000000,1.000000,1.000000,1.000000,1.000000,1.000000,1.000000,1.000000,0.177200
