0.545500,0.546700,0.548500,0.550200,0.551100,0.549200,0.549200,0.549200,0.549200,0.549200,1.000000,1.000000,0.547200,0.546500,1.000000,1.000000,1.000000,1.000000,0.550000,0.549900,0.549300,0.546500,0.546400,0.546400,0.546200,0.546200,0.546500,0.546800,0.546700,0.546700,0.546700,0.546600,1.000000,0.545500,0.543800,0.543900,0.544000,0.545300,0.545300,0.545400,1.000000,1.000000,1.000000,1.000000,1.000000,1.000000,1.000000,0.541300,0.542400,0.543700,0.545000,0.545500,0.545600,0.545600,0.545600,0.544000,0.541100,0.541100,0.541200,0.541300,0.541300,0.541400,0.540500,0.540500,0.540500,0.540500,0.540500,0.540500,1.000000,0.542000,0.541800,0.540300,1.000000,1.000000,0.537900,0.537900,0.537800,0.537700,0.537700,0.537200,0.537200,0.537100,0.537100,0.538300,0.538300,0.538400,0.538400,0.538400,0.538300,0.538200,0.538000,0.537600,0.536600,0.535100,0.535100,0.535100,0.535300,0.535300,0.535300,0.535300,0.535200,0.536100,0.536100,0.536100,0.536100,0.536100,0.537100,1.000000,0.538400,1.000000,0.492900,0.493000,0.493400,0.493400,0.493400,0.493400,1.000000,0.289800,0.289800,0.289700,0.289600,0.288500,0.288500,0.288500,0.288500,0.288600,0.288500,0.288400,0.287400,0.287400,0.287300,0.287200,0.287200,0.287300,0.287400,0.287300,0.287100,0.287000,0.286900,0.286900,0.286900,0.286900,0.286900,0.286800,0.286600,0.286500,0.286400,0.285200,0.285200,0.285200,0.285100,0.285000,0.284800,0.284700,0.284500,0.284300,0.284200,0.284000,0.283800,0.283700,0.283600,0.283500,0.283300,0.283200,0.283000,0.282900,0.282900,0.282900,0.282900,0.282800,0.282700,0.282600,0.282500,0.282400,0.282400,0.282400,0.281500,0.281500,0.281400,0.281300,0.281200,0.281000,0.280900,0.280800,0.280800,0.280500,0.280400,0.280300,0.280200,0.280200,0.280200,0.280200,0.280100,0.280000,0.279800,0.279400,0.279200,0.279000,0.278900,0.278800,0.278800,0.278700,0.278500,0.278400,0.278400,0.278200,0.277800,0.277700,0.277700,0.277700,0.277600,1.000000,1.000000,1.000000,1.000000,0.479300,0.479000,0.478800,0.478700,0.478700,0.478800,0.478800,0.479000,0.479100,0.479200,0.479300,0.478300,0.478300,0.477400,0.477300,0.477200,0.477000,0.477000,0.476700,0.476600,0.476500,0.476300,0.476200,1.000000,0.373400,0.375000,1.000000,0.475200,0.475200,0.475000,0.473200,0.473100,0.473000,0.473200,0.473000,0.473000,0.473000,0.473100,0.473400,0.472300,0.472300
0.545600,0.545600,0.549500,0.551200,0.551200,0.549200,0.549200,0.549300,0.549300,1.000000,1.000000,1.000000,0.546500,0.546500,1.000000,1.000000,1.000000,1.000000,0.551200,0.551200,0.549900,0.546400,0.545100,0.545100,0.545000,0.545000,0.545000,0.545000,0.546800,0.546600,0.546600,0.546500,0.545300,0.543700,0.542800,0.542900,0.543900,0.544000,0.544100,0.542700,0.542400,0.542200,1.000000,1.000000,0.540200,1.000000,1.000000,0.542400,0.543600,0.543600,0.543700,0.543800,0.545500,1.000000,0.545700,1.000000,0.541100,0.541100,0.541200,0.541200,0.541200,0.540400,0.540400,0.540400,0.540400,0.540400,0.540500,0.541900,0.542900,0.543000,0.543000,0.541800,0.541600,1.000000,0.538300,1.000000,1.000000,0.537800,0.538300,0.538400,0.538400,0.538300,0.538300,0.538200,0.538100,0.538000,0.538300,0.538400,0.538300,0.538000,0.536800,0.536700,0.536700,0.535200,0.535200,0.536500,0.537000,0.537100,0.535300,0.535200,0.535200,0.535200,0.536100,0.536100,0.536100,1.000000,0.538400,1.000000,1.000000,1.000000,0.492800,0.492900,0.493400,0.493400,0.493400,0.493200,1.000000,0.289800,0.289800,0.289700,0.289700,0.288600,0.288600,0.288600,0.288600,0.288600,0.288600,0.288300,0.287400,0.287300,0.287200,0.287200,0.287200,0.287200,0.287200,0.287200,0.287000,0.286800,0.286700,0.286700,0.286700,0.286800,0.286800,0.286700,0.286500,0.286400,0.286400,0.285200,0.285200,0.285100,0.285000,0.284900,0.284800,0.284700,0.284400,0.284300,0.284200,0.284000,0.283800,0.283700,0.283600,0.283500,0.283300,0.283100,0.282900,0.282800,0.282800,0.282800,0.282800,0.282700,0.282700,0.282600,0.282400,0.282400,0.282400,0.282400,0.281500,0.281500,0.281400,0.281300,0.281200,0.281000,0.281000,0.280900,0.280800,0.280600,0.280400,0.280400,0.280200,0.280200,0.280200,0.280100,0.280000,0.279900,0.279800,0.279500,0.279100,0.278900,0.278800,0.278800,0.278700,0.278600,0.278400,0.278400,0.278300,0.278200,0.278000,0.277800,0.277700,0.277700,0.277700,1.000000,1.000000,1.000000,1.000000,0.477900,0.478000,0.478600,0.478600,0.478700,0.478800,0.478900,0.479000,0.479100,0.479300,0.479400,0.478300,0.477600,0.477400,0.477300,0.477200,0.477100,0.477000,0.476700,0.476600,0.476000,0.475600,0.475600,1.000000,0.373200,0.373200,1.000000,0.475200,0.475200,0.475200,0.475000,0.474900,0.474700,1.000000,0.473200,0.473100,0.473100,0.473000,0.472300,0.472200,0.472200
0.545600,0.545800,0.549400,0.551200,0.551200,0.550500,0.549400,0.549300,1.000000,1.000000,1.000000,1.000000,1.000000,0.546400,0.547400,0.547300,1.000000,1.000000,1.000000,1.000000,1.000000,0.546400,0.546400,0.545100,0.545000,0.545000,0.545000,0.545000,0.547100,1.000000,1.000000,0.546500,0.545200,1.000000,0.542800,0.543900,1.000000,0.544000,0.544000,0.542800,0.542400,0.542100,1.000000,1.000000,0.540200,1.000000,1.000000,1.000000,0.543600,0.543600,0.543700,0.542600,0.545200,0.546400,0.546400,0.541100,0.541100,0.541100,0.541100,0.541100,0.540300,0.540200,0.540200,0.540400,0.540400,0.540400,0.541800,0.541800,0.542900,0.543000,0.543000,0.543000,0.538500,0.538300,0.537700,0.537700,1.000000,1.000000,0.537300,0.537100,0.538400,0.538200,0.537900,0.537800,0.537300,0.537300,0.537300,0.538400,0.537400,0.537300,0.536800,0.536700,0.536600,0.536600,0.536700,0.536800,0.537100,0.537200,0.537200,0.535200,0.535200,0.535200,0.536100,1.000000,1.000000,1.000000,1.000000,1.000000,1.000000,1.000000,1.000000,0.493600,0.493600,0.493600,0.493100,0.492800,1.000000,0.289900,0.289800,0.289800,0.288700,0.288600,0.288600,0.288600,0.288600,0.288600,0.288400,0.288300,0.287600,0.287400,0.287300,0.287100,0.287100,0.287100,0.287000,0.287000,0.286800,0.286700,0.286600,0.286500,0.286400,0.286300,0.286300,0.286200,0.286200,0.286200,0.285500,0.285300,0.285100,0.285000,0.284900,0.284800,0.284800,0.284700,0.284400,0.284300,0.284200,0.283900,0.283800,0.283700,0.283600,0.283400,0.283200,0.283100,0.282900,0.282800,0.282800,0.282800,0.282800,0.282700,0.282600,0.282600,0.282400,0.282400,0.282300,0.282300,0.281600,0.281500,0.281400,0.281300,0.281300,0.281100,0.281100,0.281000,0.280800,0.280600,0.280500,0.280400,0.280200,0.280100,0.280000,0.280000,0.279800,0.279500,0.278500,0.278500,0.278700,0.278700,0.278700,0.278700,0.278500,0.278400,0.278200,0.278200,0.278100,0.278000,0.278000,0.277800,0.277700,0.277700,0.277700,1.000000,1.000000,1.000000,1.000000,0.477800,0.477800,0.478100,0.478400,0.478700,0.478900,0.479000,0.480400,0.479900,0.479700,0.479600,0.478300,0.477600,0.477400,0.477400,0.477300,0.477200,0.477000,0.476600,0.476400,0.475700,0.475600,0.475600,1.000000,1.000000,0.373100,0.373100,1.000000,0.476400,1.000000,0.475600,0.475200,0.474900,0.473800,0.473800,1.000000,1.000000,0.472400,0.472200,0.472200,0.472200
0.545800,0.545800,1.000000,0.551500,1.000000,1.000000,1.000000,1.000000,1.000000,1.000000,1.000000,1.000000,1.000000,0.549000,0.549000,0.549100,1.000000,1.000000,1.000000,1.000000,0.548300,0.548300,0.545000,0.545000,0.545000,0.545000,0.544900,0.544800,1.000000,1.000000,1.000000,1.000000,1.000000,1.000000,0.544000,0.544000,0.544000,1.000000,1.000000,0.543000,0.542800,0.542100,0.543200,0.543400,0.543600,1.000000,0.546700,0.546200,0.543300,0.543300,0.542900,1.000000,0.546400,0.546400,1.000000,0.541100,0.541100,0.541200,0.541100,0.541100,0.540100,0.540100,0.539700,0.540300,0.540400,0.541700,0.541800,0.541800,0.541800,0.543000,0.543000,0.543000,0.538600,0.536700,0.535500,0.535600,0.536100,0.536100,1.000000,0.535600,0.537000,0.537900,0.537600,0.537400,0.536900,0.537100,0.537200,0.537300,0.537300,0.536900,0.536700,0.536600,0.536600,0.536600,0.536700,0.536800,0.537200,0.537200,0.537200,0.535100,0.534900,0.535200,0.536000,0.536200,1.000000,1.000000,1.000000,1.000000,1.000000,1.000000,0.493700,0.493700,0.493600,0.493600,0.492700,0.492600,1.000000,0.289900,0.289900,0.289800,0.288900,0.288800,0.288700,0.288600,0.288600,0.288600,0.288400,0.288300,0.288000,0.287800,0.287700,0.287300,0.287200,0.287100,0.287100,0.287000,0.286800,0.286700,0.286500,0.286400,0.286400,0.286200,0.286200,0.286100,0.286000,0.286000,0.285500,0.285400,0.285100,0.285000,0.284900,0.284800,0.284700,0.284600,0.284400,0.284200,0.284100,0.283900,0.283800,0.283600,0.283500,0.283400,0.283200,0.283100,0.282900,0.282900,0.282800,0.282800,0.282800,0.282700,0.282600,0.282500,0.282300,0.282300,0.282100,0.282000,0.281600,0.281500,0.281400,0.281300,0.281300,0.281200,0.281100,0.281000,0.280800,0.280700,0.280400,0.280300,0.280200,0.280100,0.280000,0.279900,0.279500,0.278400,0.278400,0.278400,0.278500,0.278600,0.278600,0.278600,0.278400,0.278200,0.278100,0.278000,0.278000,0.277900,0.277900,0.277800,0.277700,0.277700,0.277600,1.000000,1.000000,1.000000,1.000000,1.000000,0.477800,0.477700,0.478300,0.479000,0.479100,0.480400,0.480600,0.480700,0.480700,0.480300,0.479300,0.478100,0.477400,0.477400,0.477300,1.000000,0.477100,0.476500,0.476300,0.475600,0.475500,1.000000,1.000000,1.000000,1.000000,1.000000,1.000000,0.476400,0.476400,0.475400,0.475200,0.473500,0.473700,0.473800,0.474000,1.000000,1.000000,1.000000,0.472200,0.472200
0.547100,0.547100,1.000000,0.551700,1.000000,0.550900,0.550900,0.550900,0.550000,1.000000,0.548100,0.548100,0.548800,1.000000,0.549000,0.549100,1.000000,1.000000,0.547700,0.546700,1.000000,1.000000,0.546400,0.545000,1.000000,1.000000,0.544800,0.544800,1.000000,1.000000,1.000000,1.000000,1.000000,1.000000,0.544000,0.544000,0.544000,1.000000,1.000000,0.543300,0.543200,0.543300,0.545300,0.545500,0.546700,0.546700,0.546700,0.546300,0.543100,0.543000,0.542800,0.542700,1.000000,0.545100,1.000000,1.000000,1.000000,0.543600,0.542000,0.541100,0.540000,0.539900,0.538800,0.538500,0.538300,0.540200,0.541600,0.541700,0.541700,0.541700,0.541700,0.541700,0.538600,0.536600,0.535500,0.535500,0.535500,0.535500,1.000000,0.535500,0.535600,0.535600,0.536700,0.536700,0.536700,0.537000,0.537100,0.537300,0.537300,0.536900,0.536600,0.536400,0.536100,0.536500,0.536700,0.536800,0.537100,0.537200,0.535400,0.534700,0.534600,0.535200,0.535400,0.535400,1.000000,1.000000,1.000000,1.000000,1.000000,1.000000,0.493800,0.493700,0.493700,0.493700,0.492600,0.492600,1.000000,0.289900,0.289900,0.289800,0.289000,0.288900,0.288700,0.288700,0.288600,0.288500,0.288300,0.288200,0.288000,0.287900,0.287700,0.287400,0.287300,0.287200,0.287100,0.287000,0.286900,0.286700,0.286400,0.286400,0.286300,0.286100,0.286000,0.285900,0.285900,0.285800,0.285600,0.285400,0.285200,0.285100,0.284900,0.284800,0.284700,0.284600,0.284600,0.284400,0.284100,0.283900,0.283800,0.283600,0.283500,0.283400,0.283200,0.283100,0.283000,0.282900,0.282900,0.282800,0.282800,0.282600,0.282500,0.282400,0.282300,0.282200,0.282000,0.281800,0.281500,0.281400,0.281400,0.281300,0.281300,0.281200,0.281100,0.281000,0.280800,0.280600,0.280200,0.280100,0.280100,0.280000,0.279900,0.279800,0.278400,0.278400,0.278400,0.278400,0.278400,0.278400,0.278400,0.278400,0.278200,0.278100,0.277900,0.277800,0.277700,0.277600,0.277600,0.277600,0.277500,0.277500,0.277400,1.000000,1.000000,1.000000,1.000000,1.000000,1.000000,0.477700,1.000000,1.000000,0.480400,0.480500,0.480600,0.480700,1.000000,1.000000,0.481600,1.000000,1.000000,1.000000,1.000000,1.000000,0.476200,0.476200,0.475900,1.000000,0.474600,0.475000,0.474600,1.000000,0.375400,0.375200,1.000000,1.000000,1.000000,0.475400,0.475400,0.473200,0.473200,0.473900,1.000000,1.000000,1.000000,1.000000,0.472200,0.470600
0.548700,1.000000,1.000000,0.551700,0.551700,0.550900,0.550900,1.000000,1.000000,0.549600,0.548100,0.548100,0.548900,0.549000,1.000000,0.549200,0.549200,0.548000,0.547800,0.547800,1.000000,1.000000,1.000000,1.000000,1.000000,1.000000,0.544100,0.544300,0.542600,0.542700,1.000000,1.000000,1.000000,1.000000,0.544000,1.000000,1.000000,1.000000,1.000000,0.543300,0.543400,0.543700,0.544100,0.545200,0.544200,0.544200,0.544200,0.544200,0.543200,0.542100,0.542600,0.542600,1.000000,1.000000,1.000000,0.543200,0.543500,0.543600,1.000000,0.542100,0.539900,1.000000,0.538400,0.538300,0.537500,0.537500,0.541600,0.541500,0.541100,0.540800,0.540700,0.540700,0.539600,0.538100,0.535500,0.535500,0.535500,1.000000,1.000000,0.535600,0.535600,0.535700,0.536600,0.536500,0.536500,0.536600,0.537000,0.537300,0.537400,0.537200,0.535500,0.535200,0.535300,0.535300,0.535400,0.535400,0.535400,0.535400,0.534200,0.534200,0.534200,0.534200,0.534200,0.534200,1.000000,1.000000,1.000000,1.000000,1.000000,1.000000,0.493800,0.493800,0.492700,0.492700,0.492600,0.492600,1.000000,0.289900,0.289800,0.289800,0.289400,0.289000,0.288800,0.288700,0.288500,0.288400,0.288300,0.288200,0.288000,0.287900,0.287800,0.287400,0.287400,0.287200,0.287100,0.287100,0.286900,0.286700,0.286400,0.286300,0.286200,0.286100,0.286000,0.285900,0.285800,0.285700,0.285500,0.285400,0.285300,0.285200,0.285000,0.284800,0.284700,0.284600,0.284400,0.284300,0.284000,0.283900,0.283800,0.283600,0.283400,0.283300,0.283200,0.283100,0.283000,0.283000,0.282900,0.282800,0.282700,0.282400,0.282300,0.282100,0.282000,0.281900,0.281800,0.281700,0.281500,0.281400,0.281300,0.281200,0.281200,0.281100,0.280900,0.280500,0.280300,0.280300,0.279200,0.279200,0.279100,0.280000,0.279900,0.279700,0.278500,0.278400,0.278400,0.278300,0.278300,0.278300,0.278300,0.278200,0.278100,0.278000,0.277800,0.277700,0.277600,0.277500,0.277400,0.277400,0.277400,0.277400,0.277300,0.277200,1.000000,1.000000,1.000000,1.000000,1.000000,1.000000,1.000000,0.479700,0.479700,1.000000,1.000000,1.000000,1.000000,1.000000,1.000000,1.000000,1.000000,1.000000,0.474900,0.475300,0.476100,1.000000,0.474500,0.474500,0.474400,0.474400,1.000000,1.000000,0.377600,0.377600,1.000000,1.000000,1.000000,1.000000,1.000000,1.000000,1.000000,1.000000,1.000000,1.000000,1.000000,1.000000,1.000000,1.000000
0.551700,0.551700,1.000000,1.000000,0.551400,0.549800,0.549800,1.000000,0.551000,0.549600,0.548100,0.548100,1.000000,0.550300,1.000000,0.550300,1.000000,0.547900,0.547900,0.547800,1.000000,1.000000,1.000000,1.000000,1.000000,1.000000,0.542500,0.542400,0.542100,0.541900,1.000000,1.000000,1.000000,1.000000,1.000000,1.000000,1.000000,0.543100,0.543300,0.543400,0.543700,1.000000,0.544100,0.544200,0.544200,0.544200,0.544200,1.000000,1.000000,0.542000,0.542500,0.542600,1.000000,0.542700,1.000000,0.540700,0.540800,0.541200,0.542100,1.000000,1.000000,0.539800,0.538400,0.537600,0.537500,1.000000,1.000000,0.538700,0.538800,0.539000,0.539200,0.539600,0.539600,1.000000,0.538100,0.538100,0.538100,1.000000,1.000000,0.535500,0.535600,0.536600,0.536500,0.536500,0.536400,0.536400,0.537000,0.537500,0.537500,0.537400,0.535400,0.534800,0.534900,0.535200,0.535300,0.535300,0.535300,0.535400,0.534100,0.534200,0.534200,0.534200,0.534200,0.534100,1.000000,1.000000,1.000000,1.000000,1.000000,1.000000,1.000000,0.492600,0.492700,0.492700,0.492600,0.492600,1.000000,1.000000,0.289800,0.289700,0.289300,0.289000,0.288800,0.288600,0.288500,0.288400,0.288300,0.288200,0.288000,0.287900,0.287800,0.287400,0.287300,0.287200,0.287100,0.287000,0.286800,0.286600,0.286400,0.286300,0.286200,0.286000,0.286000,0.285800,0.285700,0.285600,0.285500,0.285400,0.285300,0.285200,0.285000,0.284800,0.284700,0.284500,0.284400,0.284200,0.284000,0.283900,0.283800,0.283500,0.283400,0.283300,0.283100,0.283100,0.283000,0.282900,0.282800,0.282700,0.282700,0.282300,0.282000,0.281900,0.281800,0.281700,0.281700,0.281600,0.281400,0.281400,0.281300,0.281200,0.281200,0.280600,0.280400,0.280300,0.280200,0.280200,0.279200,0.279200,0.279100,0.279100,0.279900,0.279400,0.278700,0.278500,0.278400,0.278300,0.278300,0.278200,0.278200,0.278200,0.278000,0.277900,0.277700,0.277600,0.277400,0.277300,0.277300,0.277300,0.277300,0.277200,0.277200,0.277100,1.000000,1.000000,1.000000,1.000000,1.000000,1.000000,1.000000,1.000000,1.000000,1.000000,1.000000,1.000000,1.000000,1.000000,1.000000,1.000000,1.000000,1.000000,0.472700,0.472800,0.476100,0.476100,0.474500,0.474400,0.474400,0.474400,1.000000,1.000000,1.000000,1.000000,1.000000,1.000000,1.000000,1.000000,1.000000,1.000000,1.000000,1.000000,1.000000,1.000000,1.000000,1.000000,1.000000,1.000000
0.551700,0.551600,1.000000,0.551500,1.000000,0.549200,0.549200,1.000000,1.000000,1.000000,1.000000,1.000000,1.000000,0.548000,1.000000,1.000000,1.000000,0.548000,0.547900,0.548500,1.000000,1.000000,1.000000,1.000000,1.000000,1.000000,0.542500,0.542400,0.542100,0.540500,1.000000,1.000000,1.000000,1.000000,1.000000,1.000000,0.543000,0.543400,0.543700,0.544000,1.000000,1.000000,1.000000,0.544100,0.544200,0.544200,0.543300,1.000000,0.543400,0.542400,0.542500,0.542600,0.542700,0.542600,0.540800,0.540700,0.540700,0.540700,0.542200,1.000000,1.000000,1.000000,0.539300,0.538100,1.000000,1.000000,1.000000,0.538700,0.538800,0.538800,0.539000,0.539500,0.539500,0.539400,0.538200,0.538200,1.000000,1.000000,1.000000,0.535600,0.538200,0.537500,1.000000,0.536400,0.536400,0.537800,0.537700,0.537600,0.537600,0.537500,0.536400,0.534600,0.534600,0.534900,0.535200,0.535300,0.535300,0.535300,0.534100,0.534100,0.534100,0.534100,0.534100,0.534100,1.000000,1.000000,1.000000,1.000000,1.000000,1.000000,1.000000,1.000000,0.492700,0.492700,0.492600,0.492600,1.000000,0.289200,0.289100,0.289100,0.289000,0.288900,0.288700,0.288600,0.288500,0.288300,0.288200,0.288100,0.288000,0.287900,0.287400,0.287100,0.287000,0.287000,0.287000,0.286900,0.286400,0.286300,0.286200,0.286100,0.286000,0.285900,0.285800,0.285600,0.285600,0.285500,0.285400,0.285400,0.285300,0.285200,0.285100,0.284800,0.284600,0.284400,0.284200,0.284100,0.283900,0.283800,0.283700,0.283500,0.283400,0.283300,0.283100,0.283000,0.282900,0.282800,0.282800,0.282700,0.282600,0.282000,0.281800,0.281800,0.281700,0.281600,0.281600,0.281600,0.281400,0.281400,0.281300,0.281200,0.281100,0.280400,0.280300,0.280300,0.280200,0.280200,0.279200,0.279200,0.279100,0.279100,0.279800,0.279100,0.278900,0.278700,0.278500,0.278400,0.278300,0.278100,0.278000,0.278000,0.277800,0.277700,0.277500,0.277300,0.277200,0.277100,0.277100,0.277100,0.277100,0.277100,0.277100,0.277000,1.000000,1.000000,1.000000,1.000000,1.000000,1.000000,1.000000,1.000000,1.000000,1.000000,1.000000,1.000000,1.000000,1.000000,1.000000,1.000000,1.000000,1.000000,1.000000,0.472600,0.474400,1.000000,1.000000,1.000000,0.474400,0.474400,1.000000,1.000000,1.000000,1.000000,1.000000,1.000000,1.000000,1.000000,1.000000,1.000000,1.000000,0.474500,0.474400,1.000000,1.000000,1.000000,1.000000,1.000000
0.551600,0.551600,0.551100,1.000000,1.000000,1.000000,1.000000,1.000000,1.000000,1.000000,1.000000,1.000000,1.000000,1.000000,0.548000,0.548200,1.000000,0.547900,0.547800,0.548600,0.548600,0.550000,0.550000,0.548700,0.542600,0.542500,0.542500,0.542400,0.540500,1.000000,1.000000,1.000000,1.000000,1.000000,1.000000,1.000000,0.543000,0.544500,1.000000,0.544000,1.000000,1.000000,1.000000,0.543800,0.544100,0.544200,0.543400,0.543400,0.543400,0.543600,0.543900,0.543900,0.543900,0.543800,1.000000,1.000000,0.542300,0.542200,0.542200,0.542100,1.000000,1.000000,1.000000,0.541900,1.000000,1.000000,1.000000,1.000000,0.538600,0.538700,0.539200,1.000000,0.539400,0.539400,0.538800,0.538800,1.000000,1.000000,1.000000,1.000000,0.539000,0.538200,0.536700,1.000000,0.536300,0.537800,0.537800,0.537700,0.537600,0.537500,0.537400,0.534500,0.534600,0.534700,0.534900,0.535000,0.535200,0.535300,0.535300,1.000000,0.534100,0.534000,0.534000,0.534000,1.000000,1.000000,1.000000,1.000000,1.000000,1.000000,1.000000,1.000000,1.000000,1.000000,1.000000,0.494400,1.000000,0.289000,0.289000,0.289000,0.288900,0.288900,0.288700,0.288600,0.288500,0.288300,0.288100,0.288000,0.287900,0.287700,0.287000,0.287000,0.287000,0.286900,0.286900,0.286800,0.286300,0.286200,0.286100,0.286000,0.286000,0.285800,0.285800,0.285600,0.285500,0.285400,0.285400,0.285400,0.285300,0.285200,0.285000,0.284300,0.284200,0.284100,0.284000,0.284000,0.283800,0.283700,0.283600,0.283500,0.283300,0.283200,0.283000,0.282900,0.282800,0.282700,0.282700,0.282500,0.282500,0.281800,0.281700,0.281600,0.281500,0.281500,0.281500,0.281500,0.281400,0.281400,0.281300,0.281100,0.280700,0.280400,0.280300,0.280300,0.280200,0.280200,0.280100,0.280100,0.280100,0.280000,0.279900,0.279000,0.279000,0.279000,0.278800,0.278500,0.278300,0.278100,0.278000,0.277900,0.277700,0.277600,0.277400,0.277300,0.277200,0.277100,0.277100,0.277100,0.277100,0.277100,0.277100,1.000000,1.000000,1.000000,1.000000,1.000000,1.000000,0.472900,0.477200,1.000000,1.000000,1.000000,1.000000,1.000000,1.000000,1.000000,1.000000,1.000000,1.000000,1.000000,1.000000,0.472600,0.472900,0.474400,1.000000,0.474400,0.474400,0.474400,0.473400,1.000000,1.000000,1.000000,1.000000,1.000000,1.000000,1.000000,1.000000,0.474600,0.474500,0.474500,0.474400,1.000000,1.000000,1.000000,1.000000,1.000000
0.550900,0.548700,1.000000,1.000000,1.000000,1.000000,1.000000,1.000000,1.000000,1.000000,1.000000,1.000000,1.000000,1.000000,0.547400,0.547600,0.548400,0.548500,0.548800,0.550000,0.550000,0.550000,0.550000,0.548700,0.548700,1.000000,0.544600,1.000000,1.000000,1.000000,1.000000,1.000000,1.000000,1.000000,1.000000,0.543200,0.544600,1.000000,1.000000,1.000000,1.000000,0.543800,0.543500,0.543400,0.544100,0.544200,0.543400,0.543400,0.543300,0.543300,0.543900,0.543900,0.543800,0.543800,0.543800,0.543900,0.544200,0.544300,0.543500,0.542200,0.542100,1.000000,1.000000,0.541900,1.000000,1.000000,1.000000,0.538100,0.538200,0.538200,0.539300,0.539400,0.539400,0.539300,0.538600,0.538200,0.538300,0.538200,1.000000,1.000000,1.000000,0.541800,0.539800,1.000000,1.000000,0.537800,1.000000,1.000000,0.540100,0.539000,0.539000,0.537400,1.000000,1.000000,1.000000,1.000000,0.535100,0.535400,0.535600,1.000000,1.000000,1.000000,0.535200,0.535100,1.000000,1.000000,1.000000,1.000000,1.000000,1.000000,1.000000,1.000000,1.000000,1.000000,1.000000,1.000000,1.000000,0.288900,0.288900,0.288900,0.288800,0.288800,0.288600,0.288500,0.288400,0.288200,0.288100,0.287800,0.287600,0.287100,0.287000,0.286900,0.286800,0.286800,0.286700,0.286600,0.286300,0.286200,0.286000,0.285900,0.285900,0.285700,0.285600,0.285400,0.285400,0.285300,0.285300,0.285300,0.285200,0.285100,0.284500,0.284200,0.284100,0.284000,0.284000,0.283900,0.283700,0.283600,0.283500,0.283400,0.283200,0.283100,0.282900,0.282800,0.282700,0.282600,0.282600,0.282400,0.282400,0.281800,0.281700,0.281600,0.281600,0.281500,0.281600,0.281600,0.281500,0.281400,0.281300,0.280700,0.280400,0.280300,0.280200,0.280200,0.280100,0.280100,0.280100,0.280100,0.280100,0.280000,0.280000,0.279000,0.279000,0.278900,0.278800,0.278700,0.278000,0.277800,0.277800,0.277700,0.277600,0.277500,0.277300,0.277200,0.277100,0.277000,0.277000,0.277000,0.277100,0.277100,0.277100,0.277800,0.277800,1.000000,1.000000,1.000000,0.472900,0.477300,0.478700,1.000000,1.000000,1.000000,1.000000,1.000000,1.000000,1.000000,1.000000,1.000000,1.000000,1.000000,1.000000,1.000000,1.000000,1.000000,1.000000,1.000000,1.000000,1.000000,1.000000,1.000000,1.000000,1.000000,1.000000,1.000000,1.000000,1.000000,1.000000,1.000000,0.473300,1.000000,1.000000,1.000000,1.000000,1.000000,1.000000,1.000000
0.547800,0.546400,1.000000,1.000000,1.000000,1.000000,1.000000,1.000000,1.000000,1.000000,1.000000,1.000000,1.000000,0.546000,0.547400,0.547400,0.548500,0.548800,0.550000,0.550000,0.550000,0.548800,0.548800,0.548700,0.548700,0.548700,0.548700,1.000000,1.000000,1.000000,1.000000,1.000000,1.000000,1.000000,1.000000,0.543800,0.544500,1.000000,1.000000,0.549300,0.549200,0.543300,0.543300,0.543300,0.543300,0.544200,0.543400,0.543300,0.543300,0.543200,0.542100,0.541000,0.540900,0.542700,0.542700,0.543900,1.000000,0.544300,0.544500,0.544500,0.542100,0.542000,0.541900,1.000000,0.540700,0.537800,1.000000,0.537900,1.000000,0.538200,0.538200,1.000000,0.536700,1.000000,0.536700,0.538200,0.538200,0.538100,0.538100,1.000000,1.000000,1.000000,1.000000,1.000000,1.000000,1.000000,1.000000,1.000000,1.000000,0.543900,0.541900,1.000000,0.537400,1.000000,1.000000,1.000000,0.535700,1.000000,1.000000,1.000000,1.000000,1.000000,0.535200,0.535200,1.000000,1.000000,1.000000,1.000000,1.000000,1.000000,1.000000,1.000000,1.000000,1.000000,1.000000,1.000000,1.000000,0.288900,0.288800,0.288800,0.288700,0.288700,0.288600,0.288500,0.288400,0.288200,0.288000,0.287700,0.287500,0.287300,0.287000,0.286900,0.286800,0.286700,0.286600,0.286500,0.286300,0.286200,0.286000,0.285900,0.285800,0.285600,0.285600,0.285400,0.285300,0.285300,0.285200,0.285100,0.285000,0.284800,0.284300,0.284100,0.284000,0.283800,0.283800,0.283600,0.283400,0.283400,0.283300,0.283200,0.283000,0.282900,0.282800,0.282700,0.282500,0.282500,0.282400,0.282300,0.282200,0.281800,0.281700,0.281700,0.281600,0.281600,0.281600,0.281600,0.281600,0.280700,0.280500,0.280400,0.280300,0.280200,0.280200,0.280100,0.279800,0.279500,0.279500,0.279500,0.280100,0.280000,0.279900,0.278900,0.278900,0.278900,0.278800,0.278800,0.277900,0.277800,0.277700,0.277600,0.277500,0.277400,0.277200,0.277200,0.277100,0.277000,0.277000,0.277000,0.277100,0.277200,0.277400,0.277800,1.000000,1.000000,1.000000,1.000000,1.000000,0.474000,1.000000,1.000000,1.000000,1.000000,1.000000,1.000000,1.000000,1.000000,1.000000,0.477500,0.477400,0.477400,1.000000,1.000000,1.000000,1.000000,1.000000,1.000000,1.000000,1.000000,1.000000,1.000000,1.000000,1.000000,1.000000,1.000000,1.000000,1.000000,1.000000,1.000000,1.000000,1.000000,1.000000,1.000000,1.000000,1.000000,1.000000,1.000000
1.000000,1.000000,0.544100,0.544100,1.000000,1.000000,1.000000,1.000000,1.000000,1.000000,1.000000,1.000000,1.000000,1.000000,0.547400,0.547400,0.547500,0.549000,0.550000,0.550000,0.549000,0.547300,0.547300,0.547300,0.547300,0.548700,0.548700,1.000000,0.540600,0.540600,1.000000,1.000000,1.000000,1.000000,1.000000,0.544100,0.544400,1.000000,1.000000,0.546500,0.546500,0.543100,0.543200,0.543300,0.543300,0.544200,0.543300,1.000000,0.543200,0.541900,0.541000,0.540700,1.000000,1.000000,1.000000,1.000000,0.544100,1.000000,0.544500,1.000000,0.543600,0.542000,0.542000,0.541900,0.540700,0.539600,1.000000,1.000000,1.000000,1.000000,0.538200,1.000000,0.535300,0.535300,0.536700,0.536700,0.538200,0.538100,0.538100,1.000000,1.000000,1.000000,1.000000,1.000000,1.000000,1.000000,1.000000,1.000000,1.000000,1.000000,1.000000,1.000000,1.000000,1.000000,1.000000,1.000000,1.000000,1.000000,1.000000,1.000000,1.000000,1.000000,1.000000,0.535200,1.000000,1.000000,1.000000,1.000000,1.000000,1.000000,1.000000,1.000000,1.000000,1.000000,0.490200,1.000000,1.000000,1.000000,0.288000,0.288100,0.288600,0.288600,0.288500,0.288400,0.288400,0.288200,0.287800,0.287600,0.287500,0.287300,0.287200,0.286900,0.286800,0.286700,0.286600,0.286500,0.286300,0.286200,0.286000,0.285900,0.285800,0.285600,0.285500,0.285300,0.285200,0.285100,0.284900,0.285000,0.284900,0.284800,0.284200,0.284000,0.283900,0.283800,0.283600,0.283500,0.283400,0.283300,0.283200,0.283100,0.282900,0.282800,0.282700,0.282600,0.282500,0.282400,0.282300,0.282200,0.282100,0.281900,0.281800,0.281700,0.281600,0.281600,0.281700,0.281700,0.281600,0.280500,0.280400,0.280300,0.280300,0.280100,0.280100,0.280000,0.279500,0.279400,0.279400,0.279400,0.280100,0.279800,0.279800,0.278900,0.278800,0.278800,0.278800,0.278400,0.277800,0.277800,0.277700,0.277600,0.277400,0.277400,0.277200,0.277200,0.277100,0.277100,0.277000,0.277000,0.277100,0.277100,0.277200,0.277700,1.000000,1.000000,1.000000,1.000000,1.000000,1.000000,1.000000,1.000000,1.000000,1.000000,1.000000,1.000000,1.000000,1.000000,1.000000,0.477500,0.477400,0.477400,1.000000,1.000000,1.000000,1.000000,1.000000,1.000000,1.000000,1.000000,1.000000,1.000000,1.000000,1.000000,1.000000,1.000000,1.000000,1.000000,1.000000,1.000000,1.000000,1.000000,1.000000,1.000000,1.000000,1.000000,1.000000,1.000000
1.000000,1.000000,1.000000,1.000000,1.000000,1.000000,1.000000,1.000000,1.000000,1.000000,1.000000,1.000000,1.000000,1.000000,1.000000,1.000000,0.547400,0.547400,0.547400,0.547300,0.547300,1.000000,1.000000,1.000000,0.544700,0.544700,0.540600,0.540500,1.000000,0.540600,1.000000,1.000000,1.000000,1.000000,1.000000,0.544300,1.000000,1.000000,1.000000,1.000000,1.000000,0.542900,0.543100,0.543200,0.543300,1.000000,1.000000,1.000000,1.000000,1.000000,0.540700,1.000000,1.000000,1.000000,1.000000,1.000000,0.539800,0.541600,1.000000,1.000000,0.543600,0.543600,0.542000,0.541900,0.540600,0.539600,0.537600,0.537700,1.000000,1.000000,1.000000,0.532700,0.534100,0.534100,0.535400,0.536700,0.538200,1.000000,1.000000,1.000000,1.000000,1.000000,1.000000,1.000000,1.000000,1.000000,1.000000,1.000000,1.000000,1.000000,1.000000,1.000000,1.000000,1.000000,1.000000,1.000000,1.000000,1.000000,1.000000,1.000000,1.000000,1.000000,1.000000,1.000000,1.000000,1.000000,1.000000,1.000000,1.000000,1.000000,1.000000,1.000000,1.000000,0.490200,0.488400,1.000000,1.000000,0.288000,0.288000,0.288100,0.288200,0.288300,0.288300,0.288300,0.288200,0.287400,0.287400,0.287300,0.287300,0.287300,0.287100,0.287000,0.286900,0.286700,0.286600,0.286500,0.286400,0.286300,0.286000,0.285800,0.285600,0.285400,0.285300,0.285200,0.285000,0.284900,0.284700,0.284700,0.284700,0.284700,0.284200,0.284000,0.283800,0.283700,0.283600,0.283400,0.283300,0.283300,0.283200,0.283100,0.282900,0.282800,0.282700,0.282400,0.282400,0.282300,0.282300,0.282200,0.282100,0.281900,0.281800,0.281700,0.281600,0.281600,0.281700,0.281700,0.281600,0.280400,0.280400,0.280200,0.280100,0.280000,0.279800,0.279700,0.279400,0.279400,0.279300,0.279300,0.279300,0.279200,0.279100,0.278800,0.278700,0.278700,0.278400,0.278200,0.277800,0.277700,0.277600,0.277500,0.277400,0.277300,0.277200,0.277200,0.277200,0.277100,0.277000,0.277000,0.277000,0.277000,0.277100,0.277100,0.277200,1.000000,1.000000,1.000000,1.000000,1.000000,1.000000,1.000000,1.000000,1.000000,1.000000,1.000000,1.000000,1.000000,1.000000,0.477400,0.477400,1.000000,1.000000,1.000000,1.000000,1.000000,1.000000,1.000000,1.000000,1.000000,1.000000,1.000000,1.000000,1.000000,1.000000,1.000000,1.000000,1.000000,1.000000,1.000000,1.000000,1.000000,1.000000,1.000000,1.000000,1.000000,1.000000,1.000000
1.000000,1.000000,1.000000,1.000000,1.000000,1.000000,1.000000,1.000000,1.000000,1.000000,1.000000,1.000000,1.000000,1.000000,1.000000,0.547400,0.547400,0.547400,0.547300,0.545900,1.000000,1.000000,1.000000,1.000000,1.000000,1.000000,1.000000,1.000000,0.540800,0.540800,1.000000,1.000000,1.000000,1.000000,1.000000,1.000000,1.000000,1.000000,1.000000,1.000000,1.000000,0.542800,1.000000,0.543000,1.000000,1.000000,1.000000,1.000000,1.000000,1.000000,1.000000,1.000000,1.000000,1.000000,1.000000,1.000000,1.000000,1.000000,1.000000,1.000000,1.000000,1.000000,1.000000,1.000000,0.539800,0.539000,0.537600,1.000000,1.000000,1.000000,1.000000,1.000000,0.532700,0.534100,0.535500,0.538500,0.539800,1.000000,1.000000,1.000000,1.000000,1.000000,1.000000,1.000000,1.000000,1.000000,1.000000,1.000000,1.000000,1.000000,1.000000,1.000000,1.000000,1.000000,1.000000,1.000000,1.000000,1.000000,1.000000,1.000000,1.000000,1.000000,1.000000,1.000000,1.000000,1.000000,1.000000,1.000000,1.000000,1.000000,1.000000,1.000000,0.490200,0.490200,0.488400,1.000000,1.000000,0.288000,0.288000,0.288100,0.288100,0.288200,0.288200,0.288100,0.288000,0.287300,0.287300,0.287200,0.287200,0.287200,0.287100,0.287000,0.286900,0.286700,0.286600,0.286600,0.286400,0.286400,0.286300,0.285600,0.285500,0.285400,0.285300,0.285100,0.284900,0.284800,0.284600,0.284500,0.284400,0.284300,0.284100,0.283800,0.283700,0.283500,0.283400,0.283400,0.283300,0.283300,0.283200,0.283100,0.282900,0.282800,0.282600,0.282300,0.282200,0.282100,0.282100,0.282100,0.282000,0.281800,0.281800,0.281700,0.281500,0.281400,0.281400,0.281500,0.280500,0.280300,0.280300,0.280100,0.280100,0.279900,0.279800,0.279700,0.279400,0.279400,0.279200,0.279200,0.279200,0.279100,0.279000,0.278700,0.278700,0.278600,0.278300,0.278200,0.277900,0.277800,0.277600,0.277400,0.277400,0.277300,0.277200,0.277200,0.277200,0.277100,0.277000,0.276900,0.277000,0.277000,0.277000,0.277000,0.277000,1.000000,1.000000,1.000000,1.000000,1.000000,1.000000,1.000000,1.000000,1.000000,1.000000,1.000000,1.000000,1.000000,1.000000,1.000000,1.000000,1.000000,1.000000,1.000000,1.000000,1.000000,1.000000,1.000000,1.000000,1.000000,1.000000,1.000000,1.000000,1.000000,1.000000,1.000000,1.000000,1.000000,1.000000,1.000000,1.000000,1.000000,1.000000,1.000000,1.000000,1.000000,1.000000,1.000000
1.000000,1.000000,1.000000,1.000000,1.000000,1.000000,1.000000,1.000000,1.000000,1.000000,1.000000,1.000000,1.000000,1.000000,1.000000,1.000000,1.000000,1.000000,0.547300,0.545900,1.000000,1.000000,1.000000,1.000000,1.000000,1.000000,1.000000,1.000000,1.000000,1.000000,1.000000,1.000000,1.000000,1.000000,1.000000,1.000000,1.000000,1.000000,1.000000,1.000000,1.000000,1.000000,1.000000,1.000000,1.000000,1.000000,1.000000,1.000000,1.000000,1.000000,1.000000,1.000000,1.000000,1.000000,1.000000,1.000000,1.000000,1.000000,1.000000,1.000000,1.000000,1.000000,1.000000,0.541500,0.541300,0.538800,1.000000,1.000000,1.000000,1.000000,1.000000,1.000000,0.532700,0.534200,0.536900,0.539000,1.000000,1.000000,1.000000,1.000000,1.000000,1.000000,1.000000,1.000000,1.000000,1.000000,1.000000,1.000000,1.000000,1.000000,1.000000,1.000000,1.000000,1.000000,1.000000,1.000000,1.000000,1.000000,1.000000,1.000000,1.000000,1.000000,1.000000,1.000000,1.000000,1.000000,1.000000,1.000000,1.000000,1.000000,1.000000,1.000000,0.493600,0.493600,1.000000,1.000000,1.000000,0.288000,0.288000,0.288100,0.288100,0.288100,0.288000,0.287900,0.287600,0.287200,0.287200,0.287000,0.287000,0.286900,0.286900,0.286900,0.286800,0.286700,0.286600,0.286600,0.286500,0.286500,0.286400,0.286100,0.285400,0.285200,0.285100,0.285000,0.284900,0.284700,0.284500,0.284500,0.284300,0.284200,0.284100,0.283800,0.283700,0.283400,0.283400,0.283300,0.283300,0.283300,0.283300,0.283200,0.283100,0.282900,0.282600,0.282200,0.282100,0.282000,0.282000,0.282000,0.281800,0.281800,0.281700,0.281700,0.281300,0.281200,0.281200,0.281100,0.280400,0.280300,0.280200,0.280100,0.280000,0.279900,0.279800,0.279700,0.279400,0.279300,0.279100,0.279100,0.279000,0.278900,0.278800,0.278600,0.278500,0.278400,0.278200,0.278200,0.278000,0.277900,0.277800,0.277400,0.277400,0.277200,0.277200,0.277200,0.277200,0.277100,0.276900,0.276800,0.276800,0.276900,0.276900,0.276500,0.275900,1.000000,1.000000,1.000000,1.000000,1.000000,1.000000,1.000000,1.000000,1.000000,1.000000,1.000000,1.000000,1.000000,1.000000,1.000000,1.000000,1.000000,1.000000,1.000000,1.000000,1.000000,1.000000,1.000000,1.000000,1.000000,1.000000,1.000000,1.000000,1.000000,1.000000,1.000000,1.000000,1.000000,1.000000,1.000000,1.000000,1.000000,1.000000,1.000000,1.000000,1.000000,1.000000,1.000000
1.000000,1.000000,1.000000,1.000000,1.000000,1.000000,1.000000,1.000000,1.000000,1.000000,1.000000,1.000000,1.000000,1.000000,1.000000,1.000000,1.000000,1.000000,1.000000,0.545900,1.000000,1.000000,1.000000,1.000000,1.000000,1.000000,1.000000,1.000000,1.000000,1.000000,1.000000,1.000000,1.000000,1.000000,1.000000,1.000000,1.000000,1.000000,1.000000,1.000000,1.000000,1.000000,1.000000,1.000000,1.000000,1.000000,1.000000,1.000000,1.000000,1.000000,1.000000,1.000000,1.000000,1.000000,1.000000,1.000000,1.000000,1.000000,1.000000,1.000000,1.000000,1.000000,1.000000,1.000000,0.541200,1.000000,1.000000,1.000000,1.000000,1.000000,1.000000,1.000000,1.000000,1.000000,0.540000,1.000000,1.000000,1.000000,1.000000,1.000000,1.000000,1.000000,1.000000,1.000000,1.000000,1.000000,1.000000,1.000000,1.000000,1.000000,1.000000,1.000000,1.000000,1.000000,1.000000,1.000000,1.000000,1.000000,1.000000,1.000000,1.000000,1.000000,1.000000,1.000000,1.000000,1.000000,1.000000,1.000000,1.000000,1.000000,1.000000,1.000000,1.000000,0.492300,1.000000,1.000000,1.000000,0.288000,0.288000,0.288100,0.288100,0.288100,0.288000,0.287900,0.287600,0.287200,0.287100,0.286900,0.286900,0.286800,0.286700,0.286700,0.286700,0.286700,0.286600,0.286600,0.286600,0.286600,0.286500,0.286300,0.285600,0.285100,0.285000,0.284900,0.284800,0.284700,0.284500,0.284400,0.284300,0.284200,0.284000,0.283800,0.283600,0.283300,0.283200,0.283200,0.283200,0.283300,0.283300,0.283300,0.283200,0.283100,0.282600,0.281900,0.281800,0.281800,0.281700,0.281500,0.281400,0.281400,0.281500,0.281600,0.281100,0.281000,0.280800,0.280600,0.280300,0.280200,0.280200,0.280100,0.280100,0.279900,0.279800,0.279800,0.279400,0.279200,0.279100,0.279000,0.279000,0.278800,0.278700,0.278500,0.278400,0.278400,0.278200,0.278200,0.278100,0.278000,0.277900,0.277700,0.277400,0.277200,0.277200,0.277100,0.277100,0.277000,0.276800,0.276800,0.276800,0.276800,0.275500,0.275400,0.276400,1.000000,1.000000,1.000000,1.000000,1.000000,1.000000,1.000000,1.000000,1.000000,1.000000,1.000000,1.000000,1.000000,1.000000,1.000000,1.000000,1.000000,1.000000,1.000000,1.000000,1.000000,1.000000,1.000000,1.000000,1.000000,1.000000,1.000000,1.000000,1.000000,1.000000,1.000000,1.000000,1.000000,1.000000,1.000000,1.000000,1.000000,1.000000,1.000000,1.000000,1.000000,1.000000,1.000000
1.000000,1.000000,1.000000,1.000000,1.000000,1.000000,1.000000,1.000000,1.000000,1.000000,1.000000,1.000000,1.000000,1.000000,1.000000,1.000000,1.000000,1.000000,1.000000,1.000000,1.000000,1.000000,1.000000,1.000000,1.000000,1.000000,1.000000,1.000000,1.000000,1.000000,1.000000,1.000000,1.000000,1.000000,1.000000,1.000000,1.000000,1.000000,1.000000,1.000000,1.000000,1.000000,1.000000,1.000000,1.000000,1.000000,1.000000,1.000000,1.000000,1.000000,1.000000,1.000000,1.000000,1.000000,1.000000,1.000000,1.000000,1.000000,1.000000,1.000000,1.000000,1.000000,1.000000,1.000000,0.538900,0.538900,1.000000,1.000000,1.000000,1.000000,1.000000,1.000000,1.000000,1.000000,1.000000,1.000000,1.000000,1.000000,1.000000,1.000000,1.000000,1.000000,1.000000,1.000000,1.000000,1.000000,1.000000,1.000000,1.000000,1.000000,1.000000,1.000000,1.000000,1.000000,1.000000,1.000000,1.000000,1.000000,1.000000,1.000000,1.000000,1.000000,1.000000,1.000000,1.000000,1.000000,1.000000,1.000000,1.000000,1.000000,1.000000,1.000000,1.000000,1.000000,1.000000,1.000000,1.000000,0.288000,0.288000,0.288100,0.288100,0.288100,0.287900,0.287800,0.287700,0.287300,0.287100,0.286900,0.286800,0.286600,0.286600,0.286600,0.286600,0.286600,0.286600,0.286600,0.286600,0.286600,0.286600,0.285800,0.285800,0.285000,0.285000,0.284900,0.284800,0.284700,0.284500,0.284400,0.284300,0.284200,0.284000,0.283800,0.283600,0.283100,0.283100,0.283100,0.283100,0.283200,0.283300,0.283300,0.283200,0.283200,0.283000,0.281800,0.281800,0.281700,0.281600,0.281400,0.281300,0.281300,0.281400,0.281500,0.281000,0.280900,0.280700,0.280500,0.280300,0.280200,0.280200,0.280100,0.280100,0.280000,0.279900,0.279800,0.279400,0.279200,0.279100,0.279000,0.278900,0.278800,0.278700,0.278500,0.278400,0.278400,0.278200,0.278200,0.278100,0.278000,0.278000,0.277800,0.277600,0.277200,0.277100,0.277100,0.277000,0.277000,0.276700,0.275800,0.275700,0.275600,0.275500,0.275400,1.000000,1.000000,1.000000,1.000000,1.000000,1.000000,1.000000,1.000000,1.000000,1.000000,1.000000,1.000000,1.000000,1.000000,1.000000,1.000000,1.000000,1.000000,1.000000,1.000000,1.000000,1.000000,1.000000,1.000000,1.000000,1.000000,1.000000,1.000000,1.000000,1.000000,1.000000,1.000000,1.000000,1.000000,1.000000,1.000000,1.000000,1.000000,1.000000,1.000000,1.000000,1.000000,1.000000,1.000000
1.000000,1.000000,1.000000,1.000000,1.000000,1.000000,1.000000,1.000000,1.000000,1.000000,1.000000,1.000000,1.000000,1.000000,1.000000,1.000000,1.000000,1.000000,1.000000,1.000000,1.000000,1.000000,1.000000,1.000000,1.000000,1.000000,1.000000,1.000000,1.000000,1.000000,1.000000,1.000000,1.000000,1.000000,1.000000,1.000000,1.000000,1.000000,1.000000,1.000000,1.000000,1.000000,1.000000,1.000000,1.000000,1.000000,1.000000,1.000000,1.000000,1.000000,1.000000,1.000000,1.000000,1.000000,1.000000,1.000000,1.000000,1.000000,1.000000,1.000000,1.000000,1.000000,1.000000,1.000000,1.000000,1.000000,1.000000,1.000000,1.000000,1.000000,1.000000,1.000000,1.000000,1.000000,1.000000,1.000000,1.000000,1.000000,1.000000,1.000000,1.000000,1.000000,1.000000,1.000000,1.000000,1.000000,1.000000,1.000000,1.000000,1.000000,1.000000,1.000000,0.536700,1.000000,1.000000,1.000000,1.000000,1.000000,1.000000,1.000000,1.000000,1.000000,1.000000,1.000000,1.000000,1.000000,1.000000,1.000000,1.000000,1.000000,1.000000,1.000000,1.000000,1.000000,1.000000,1.000000,1.000000,0.288000,0.288000,0.288000,0.288000,0.288000,0.287900,0.287800,0.287600,0.287400,0.287200,0.286900,0.286700,0.286600,0.286500,0.286500,0.286500,0.286600,0.286600,0.286600,0.286600,0.286600,0.285800,0.285800,0.285700,0.284800,0.284800,0.284700,0.284700,0.284700,0.284600,0.284400,0.284300,0.284200,0.284000,0.283800,0.283400,0.283000,0.283000,0.283000,0.283000,0.283200,0.283200,0.283300,0.283200,0.283200,0.283200,0.281800,0.281800,0.281700,0.281500,0.281300,0.281200,0.281200,0.281400,0.281400,0.281400,0.280900,0.280600,0.280500,0.280300,0.280300,0.280200,0.280100,0.280100,0.280000,0.279900,0.279800,0.279400,0.279200,0.279100,0.279000,0.278900,0.278700,0.278600,0.278500,0.278400,0.278400,0.278200,0.278200,0.278100,0.278000,0.278000,0.277800,0.277700,0.277000,0.276900,0.276800,0.276700,0.276600,0.276000,0.275800,0.275700,0.275600,0.275500,1.000000,1.000000,1.000000,1.000000,1.000000,1.000000,1.000000,1.000000,1.000000,1.000000,1.000000,1.000000,1.000000,1.000000,1.000000,1.000000,1.000000,1.000000,1.000000,1.000000,1.000000,1.000000,1.000000,1.000000,1.000000,1.000000,1.000000,1.000000,1.000000,1.000000,1.000000,1.000000,1.000000,1.000000,1.000000,1.000000,1.000000,1.000000,1.000000,1.000000,1.000000,1.000000,1.000000,1.000000,1.000000
1.000000,1.000000,1.000000,1.000000,1.000000,1.000000,1.000000,1.000000,1.000000,1.000000,1.000000,1.000000,1.000000,1.000000,1.000000,1.000000,1.000000,1.000000,1.000000,1.000000,1.000000,1.000000,1.000000,1.000000,1.000000,1.000000,1.000000,1.000000,1.000000,1.000000,1.000000,1.000000,1.000000,1.000000,1.000000,1.000000,1.000000,1.000000,1.000000,1.000000,1.000000,1.000000,1.000000,1.000000,1.000000,1.000000,1.000000,1.000000,1.000000,1.000000,1.000000,1.000000,1.000000,1.000000,1.000000,1.000000,1.000000,1.000000,1.000000,1.000000,1.000000,1.000000,1.000000,1.000000,1.000000,1.000000,1.000000,1.000000,1.000000,1.000000,1.000000,1.000000,1.000000,1.000000,1.000000,1.000000,1.000000,1.000000,1.000000,1.000000,1.000000,1.000000,1.000000,1.000000,1.000000,1.000000,1.000000,1.000000,1.000000,1.000000,1.000000,1.000000,1.000000,1.000000,1.000000,1.000000,1.000000,1.000000,1.000000,1.000000,1.000000,1.000000,1.000000,1.000000,1.000000,1.000000,1.000000,1.000000,1.000000,1.000000,1.000000,1.000000,1.000000,1.000000,1.000000,1.000000,1.000000,0.288000,0.288000,0.288000,0.288000,0.288000,0.287800,0.287700,0.287600,0.287400,0.287300,0.287000,0.286800,0.286600,0.286500,0.286500,0.286500,0.286600,0.286600,0.286600,0.286600,0.286600,0.285800,0.285800,0.285700,0.285600,0.284700,0.284700,0.284700,0.284700,0.284600,0.284500,0.284300,0.284200,0.284000,0.283600,0.283400,0.282800,0.282800,0.282800,0.282900,0.283000,0.283100,0.283100,0.283100,0.283100,0.283100,0.281900,0.281900,0.281700,0.281400,0.281200,0.281100,0.281200,0.281200,0.281300,0.281200,0.280900,0.280700,0.280600,0.280400,0.280400,0.280300,0.280200,0.280100,0.280000,0.279900,0.279800,0.279400,0.279300,0.279100,0.279000,0.278900,0.278700,0.278600,0.278500,0.278400,0.278400,0.278200,0.278200,0.278000,0.278000,0.277900,0.277800,0.277700,0.277000,0.276900,0.276800,0.276600,0.276400,0.276000,0.275900,0.275800,0.275700,0.275700,0.275600,0.275600,1.000000,1.000000,1.000000,1.000000,1.000000,1.000000,1.000000,1.000000,1.000000,1.000000,1.000000,1.000000,1.000000,1.000000,1.000000,1.000000,1.000000,1.000000,1.000000,1.000000,1.000000,1.000000,1.000000,1.000000,1.000000,1.000000,1.000000,1.000000,1.000000,1.000000,1.000000,1.000000,1.000000,1.000000,1.000000,1.000000,1.000000,1.000000,1.000000,1.000000,1.000000,1.000000,1.000000
1.000000,1.000000,1.000000,1.000000,1.000000,1.000000,1.000000,1.000000,1.000000,1.000000,1.000000,1.000000,1.000000,1.000000,1.000000,1.000000,1.000000,1.000000,1.000000,1.000000,1.000000,1.000000,1.000000,1.000000,1.000000,1.000000,1.000000,1.000000,1.000000,1.000000,1.000000,1.000000,1.000000,1.000000,1.000000,1.000000,1.000000,1.000000,1.000000,1.000000,1.000000,1.000000,1.000000,1.000000,1.000000,1.000000,1.000000,1.000000,1.000000,1.000000,1.000000,1.000000,1.000000,1.000000,1.000000,1.000000,1.000000,1.000000,1.000000,1.000000,1.000000,1.000000,1.000000,1.000000,1.000000,1.000000,1.000000,1.000000,1.000000,1.000000,1.000000,1.000000,1.000000,1.000000,1.000000,1.000000,1.000000,1.000000,1.000000,1.000000,1.000000,1.000000,1.000000,1.000000,1.000000,1.000000,1.000000,1.000000,1.000000,1.000000,1.000000,1.000000,1.000000,1.000000,1.000000,1.000000,1.000000,1.000000,1.000000,1.000000,1.000000,1.000000,1.000000,1.000000,1.000000,1.000000,1.000000,1.000000,1.000000,1.000000,1.000000,1.000000,1.000000,1.000000,1.000000,1.000000,1.000000,0.288000,0.288000,0.288000,0.287900,0.287900,0.287700,0.287600,0.287500,0.287300,0.287200,0.286900,0.286800,0.286600,0.286600,0.286500,0.286600,0.286600,0.286500,0.286500,0.286400,0.286100,0.285700,0.285700,0.285600,0.285600,0.284600,0.284600,0.284600,0.284700,0.284700,0.284700,0.284600,0.284100,0.283900,0.283600,0.283500,0.282800,0.282800,0.282800,0.282900,0.282900,0.283000,0.283000,0.283100,0.283000,0.282900,0.282200,0.282200,0.282000,0.282000,0.281100,0.281100,0.281100,0.281200,0.281200,0.281200,0.281000,0.280800,0.280700,0.280500,0.280400,0.280300,0.280200,0.280100,0.280000,0.279800,0.279800,0.279500,0.279400,0.279200,0.279100,0.279000,0.278700,0.278700,0.278500,0.278400,0.278300,0.278200,0.278100,0.277900,0.277800,0.277800,0.277500,0.277300,0.277000,0.276800,0.276700,0.276500,0.276400,0.276100,0.276000,0.275900,0.275800,0.276000,0.275900,0.275800,1.000000,1.000000,1.000000,1.000000,1.000000,1.000000,1.000000,1.000000,1.000000,1.000000,1.000000,1.000000,1.000000,1.000000,1.000000,1.000000,1.000000,1.000000,1.000000,1.000000,1.000000,1.000000,1.000000,1.000000,1.000000,1.000000,1.000000,1.000000,1.000000,1.000000,1.000000,1.000000,1.000000,1.000000,1.000000,1.000000,1.000000,1.000000,1.000000,1.000000,1.000000,1.000000,1.000000
1.000000,1.000000,1.000000,1.000000,1.000000,1.000000,1.000000,1.000000,1.000000,1.000000,1.000000,1.000000,1.000000,1.000000,1.000000,1.000000,1.000000,1.000000,1.000000,1.000000,1.000000,1.000000,1.000000,1.000000,1.000000,1.000000,1.000000,1.000000,1.000000,1.000000,1.000000,1.000000,1.000000,1.000000,1.000000,1.000000,1.000000,1.000000,1.000000,1.000000,1.000000,1.000000,1.000000,1.000000,1.000000,1.000000,1.000000,1.000000,1.000000,1.000000,1.000000,0.530800,1.000000,1.000000,1.000000,1.000000,1.000000,1.000000,1.000000,1.000000,1.000000,1.000000,1.000000,1.000000,1.000000,1.000000,1.000000,1.000000,1.000000,1.000000,1.000000,1.000000,1.000000,1.000000,1.000000,1.000000,1.000000,1.000000,1.000000,1.000000,1.000000,1.000000,1.000000,1.000000,1.000000,1.000000,1.000000,1.000000,1.000000,1.000000,1.000000,1.000000,1.000000,1.000000,1.000000,1.000000,1.000000,1.000000,0.535500,0.536400,1.000000,1.000000,1.000000,1.000000,1.000000,1.000000,1.000000,1.000000,1.000000,1.000000,1.000000,1.000000,1.000000,1.000000,1.000000,1.000000,1.000000,0.288000,0.288000,0.288000,0.287900,0.287800,0.287700,0.287500,0.287400,0.287200,0.287000,0.286800,0.286700,0.286700,0.286600,0.286600,0.286600,0.286600,0.286500,0.285700,0.285700,0.285600,0.285600,0.285600,0.285600,0.284700,0.284600,0.284600,0.284600,0.284600,0.284700,0.284700,0.284700,0.284600,0.283600,0.283600,0.283500,0.283400,0.282900,0.282900,0.282800,0.282800,0.282800,0.282800,0.282800,0.282800,0.282700,0.282300,0.282200,0.282100,0.282100,0.281100,0.281000,0.281100,0.281100,0.281100,0.281100,0.281000,0.280900,0.280700,0.280700,0.280600,0.280400,0.280200,0.280100,0.279900,0.279800,0.279800,0.279600,0.279500,0.279200,0.279100,0.278900,0.278700,0.278600,0.278500,0.278400,0.278200,0.278100,0.278000,0.277800,0.277800,0.277700,0.277500,0.277300,0.277000,0.276900,0.276800,0.276500,0.276400,0.276200,0.276200,0.276200,0.276100,0.276100,0.276000,0.276000,0.276000,1.000000,1.000000,1.000000,1.000000,1.000000,1.000000,1.000000,1.000000,1.000000,1.000000,0.476500,0.476600,1.000000,1.000000,0.473900,1.000000,1.000000,1.000000,1.000000,1.000000,1.000000,1.000000,1.000000,1.000000,1.000000,1.000000,1.000000,1.000000,1.000000,1.000000,1.000000,1.000000,1.000000,1.000000,1.000000,1.000000,1.000000,1.000000,1.000000,1.000000,1.000000,1.000000
1.000000,1.000000,1.000000,1.000000,1.000000,1.000000,1.000000,1.000000,1.000000,1.000000,1.000000,1.000000,1.000000,1.000000,1.000000,1.000000,1.000000,1.000000,1.000000,1.000000,1.000000,1.000000,1.000000,1.000000,1.000000,1.000000,1.000000,1.000000,1.000000,1.000000,1.000000,1.000000,1.000000,1.000000,1.000000,0.319600,1.000000,1.000000,1.000000,1.000000,1.000000,0.319700,1.000000,1.000000,1.000000,1.000000,1.000000,1.000000,1.000000,1.000000,1.000000,1.000000,1.000000,1.000000,1.000000,1.000000,1.000000,1.000000,1.000000,1.000000,1.000000,1.000000,1.000000,1.000000,1.000000,1.000000,1.000000,1.000000,1.000000,1.000000,1.000000,1.000000,1.000000,1.000000,1.000000,1.000000,1.000000,1.000000,1.000000,1.000000,1.000000,1.000000,1.000000,1.000000,1.000000,1.000000,1.000000,1.000000,1.000000,1.000000,1.000000,1.000000,1.000000,1.000000,1.000000,1.000000,1.000000,1.000000,0.532600,0.535400,0.535200,1.000000,1.000000,1.000000,1.000000,1.000000,1.000000,1.000000,1.000000,1.000000,1.000000,1.000000,1.000000,1.000000,1.000000,1.000000,1.000000,0.288100,0.288100,0.288000,0.287900,0.287900,0.287500,0.287300,0.287200,0.286900,0.286800,0.286700,0.286700,0.286700,0.286700,0.286700,0.286600,0.285700,0.285700,0.285600,0.285600,0.285400,0.285400,0.285200,0.284900,0.284700,0.284600,0.284600,0.284600,0.284600,0.284600,0.284700,0.284700,0.284500,0.283500,0.283500,0.283500,0.283400,0.283300,0.283100,0.282800,0.282800,0.282700,0.282700,0.282700,0.282700,0.282600,0.282400,0.282300,0.282100,0.282100,0.281900,0.281000,0.281000,0.281100,0.281100,0.281100,0.281000,0.281000,0.280800,0.280700,0.280500,0.280200,0.280100,0.280000,0.279800,0.279800,0.279700,0.279600,0.279500,0.279000,0.278800,0.278700,0.278600,0.278500,0.278100,0.278000,0.277900,0.277800,0.277800,0.277700,0.277700,0.277600,0.277400,0.277300,0.277000,0.276900,0.276800,0.276600,0.276500,0.276300,0.276300,0.276300,0.276300,0.276400,0.276300,0.276200,0.276800,1.000000,1.000000,1.000000,1.000000,1.000000,1.000000,1.000000,1.000000,0.476500,1.000000,0.476500,1.000000,1.000000,1.000000,0.473900,1.000000,0.473800,0.475400,0.476900,1.000000,1.000000,1.000000,1.000000,1.000000,1.000000,1.000000,1.000000,1.000000,1.000000,1.000000,1.000000,1.000000,1.000000,1.000000,1.000000,0.461800,0.462200,0.464300,0.466600,1.000000,1.000000,1.000000
1.000000,1.000000,1.000000,1.000000,1.000000,1.000000,1.000000,1.000000,1.000000,1.000000,1.000000,1.000000,1.000000,1.000000,1.000000,1.000000,1.000000,1.000000,1.000000,1.000000,1.000000,1.000000,1.000000,1.000000,1.000000,1.000000,1.000000,1.000000,1.000000,1.000000,1.000000,1.000000,1.000000,1.000000,0.319600,0.319600,0.318900,1.000000,1.000000,1.000000,0.318800,0.319700,0.320100,0.320200,0.320300,0.320300,0.320300,0.321500,0.321900,1.000000,1.000000,1.000000,1.000000,1.000000,1.000000,1.000000,1.000000,1.000000,1.000000,1.000000,1.000000,1.000000,1.000000,1.000000,1.000000,1.000000,1.000000,1.000000,1.000000,1.000000,0.528200,1.000000,1.000000,1.000000,1.000000,1.000000,1.000000,1.000000,1.000000,1.000000,1.000000,1.000000,1.000000,1.000000,1.000000,1.000000,1.000000,1.000000,1.000000,1.000000,1.000000,1.000000,1.000000,1.000000,1.000000,1.000000,1.000000,0.532600,0.532600,0.532500,0.535100,0.535000,1.000000,1.000000,1.000000,1.000000,1.000000,1.000000,1.000000,1.000000,1.000000,1.000000,1.000000,1.000000,1.000000,1.000000,1.000000,0.288200,0.288200,0.288100,0.288000,0.287900,0.287300,0.287200,0.287000,0.286800,0.286700,0.286600,0.286600,0.286600,0.286600,0.286600,0.286600,0.285700,0.285700,0.285600,0.285600,0.285400,0.285300,0.285100,0.284900,0.284700,0.284600,0.284600,0.284600,0.284600,0.284600,0.284700,0.284700,0.283400,0.283500,0.283500,0.283500,0.283400,0.283300,0.283200,0.282900,0.282700,0.282500,0.282500,0.282500,0.282500,0.282500,0.282300,0.282300,0.282100,0.282100,0.282000,0.281000,0.281000,0.281000,0.281000,0.281100,0.281000,0.281000,0.280800,0.280600,0.280300,0.280100,0.280000,0.279900,0.279800,0.279700,0.279700,0.279600,0.279500,0.278800,0.278700,0.278600,0.278400,0.278300,0.278100,0.278000,0.277900,0.277800,0.277800,0.277700,0.277700,0.277600,0.277400,0.277300,0.277100,0.276900,0.276800,0.276600,0.276500,0.276400,0.276400,0.276400,0.276400,0.276500,0.276600,0.276700,1.000000,1.000000,1.000000,1.000000,1.000000,1.000000,1.000000,1.000000,0.476100,0.475600,0.476500,0.476500,1.000000,1.000000,1.000000,0.475400,0.473800,0.473800,0.475400,0.476900,1.000000,1.000000,1.000000,1.000000,1.000000,1.000000,1.000000,1.000000,1.000000,1.000000,1.000000,1.000000,1.000000,1.000000,1.000000,1.000000,0.461800,0.462200,0.464300,0.466800,1.000000,1.000000,1.000000
1.000000,1.000000,1.000000,1.000000,1.000000,1.000000,1.000000,1.000000,1.000000,1.000000,1.000000,1.000000,1.000000,1.000000,1.000000,1.000000,1.000000,1.000000,1.000000,1.000000,1.000000,1.000000,1.000000,0.316800,0.316800,0.318100,0.318100,0.318100,0.318000,1.000000,1.000000,0.318000,0.318100,1.000000,0.319600,0.319600,0.319600,0.318800,0.318800,0.318800,0.319600,0.319800,0.320100,0.320200,0.320200,0.320200,0.320200,0.320800,0.321400,1.000000,1.000000,1.000000,1.000000,1.000000,1.000000,1.000000,1.000000,1.000000,1.000000,1.000000,1.000000,1.000000,1.000000,1.000000,1.000000,1.000000,1.000000,1.000000,1.000000,1.000000,1.000000,1.000000,1.000000,1.000000,1.000000,1.000000,1.000000,1.000000,1.000000,1.000000,1.000000,1.000000,0.535100,0.533100,1.000000,1.000000,1.000000,1.000000,1.000000,1.000000,0.533600,1.000000,1.000000,1.000000,1.000000,1.000000,1.000000,1.000000,1.000000,0.532200,0.532200,0.534000,0.534000,1.000000,1.000000,1.000000,1.000000,1.000000,1.000000,1.000000,1.000000,1.000000,1.000000,1.000000,1.000000,1.000000,1.000000,0.288400,0.288400,0.288300,0.288200,0.288000,0.287200,0.287100,0.287000,0.286800,0.286700,0.286600,0.286600,0.286600,0.286600,0.286600,0.286600,0.285700,0.285700,0.285600,0.285600,0.285400,0.285300,0.285100,0.284900,0.284800,0.284700,0.284600,0.284600,0.284600,0.283500,0.283500,0.283400,0.283400,0.283400,0.283400,0.283400,0.283300,0.283300,0.283200,0.282800,0.282400,0.282300,0.282300,0.282300,0.282300,0.282300,0.282200,0.282100,0.281900,0.281800,0.281800,0.281000,0.281000,0.281000,0.281000,0.281000,0.281000,0.280900,0.280800,0.280400,0.280200,0.280000,0.280000,0.279800,0.279700,0.279700,0.279600,0.279500,0.279200,0.278700,0.278700,0.278600,0.278400,0.278200,0.278000,0.277900,0.277800,0.277800,0.277700,0.277700,0.277700,0.277600,0.277400,0.277300,0.277000,0.276900,0.276800,0.276600,0.276600,0.276500,0.276500,0.276500,0.276500,0.276600,0.276600,0.276800,1.000000,1.000000,1.000000,1.000000,1.000000,1.000000,1.000000,1.000000,1.000000,0.473800,1.000000,1.000000,1.000000,1.000000,1.000000,1.000000,0.475400,0.475400,0.476900,1.000000,1.000000,1.000000,1.000000,1.000000,1.000000,1.000000,1.000000,1.000000,1.000000,1.000000,1.000000,1.000000,1.000000,1.000000,1.000000,1.000000,0.465100,0.465600,0.466000,1.000000,1.000000,1.000000,1.000000
1.000000,1.000000,1.000000,1.000000,1.000000,1.000000,1.000000,1.000000,1.000000,1.000000,1.000000,1.000000,1.000000,1.000000,1.000000,1.000000,1.000000,1.000000,1.000000,1.000000,1.000000,0.316600,0.316600,0.316800,0.316800,0.316900,0.318100,0.318100,0.318000,0.318000,0.317900,1.000000,0.318100,0.318200,0.318300,0.318500,0.318600,0.318700,0.318800,0.318800,0.319700,0.319800,0.320000,0.320100,0.320100,0.320000,0.319900,0.319900,0.321000,0.323000,1.000000,1.000000,1.000000,1.000000,1.000000,1.000000,1.000000,1.000000,1.000000,1.000000,1.000000,1.000000,1.000000,1.000000,1.000000,1.000000,1.000000,1.000000,1.000000,0.530400,0.530400,0.535300,1.000000,1.000000,1.000000,1.000000,1.000000,1.000000,1.000000,1.000000,1.000000,1.000000,0.535200,0.535200,1.000000,1.000000,1.000000,1.000000,1.000000,1.000000,0.533600,1.000000,0.531100,1.000000,1.000000,1.000000,1.000000,1.000000,1.000000,1.000000,1.000000,1.000000,0.534000,1.000000,1.000000,1.000000,1.000000,1.000000,1.000000,1.000000,1.000000,1.000000,1.000000,1.000000,1.000000,1.000000,1.000000,0.288500,0.288400,0.288400,0.288200,0.287800,0.287100,0.287100,0.287000,0.286700,0.286600,0.286500,0.286400,0.286400,0.286400,0.286400,0.286000,0.285800,0.285700,0.285600,0.285600,0.285400,0.285300,0.285100,0.284900,0.284800,0.284700,0.284700,0.284600,0.284500,0.283600,0.283500,0.283400,0.283300,0.283300,0.283300,0.283300,0.283300,0.283200,0.283100,0.282500,0.282300,0.282200,0.282200,0.282200,0.282200,0.282200,0.282100,0.282000,0.281800,0.281800,0.281700,0.281100,0.281000,0.280900,0.280900,0.280900,0.280900,0.280800,0.280600,0.280300,0.280200,0.280000,0.279800,0.279700,0.279600,0.279600,0.279400,0.279100,0.279000,0.278700,0.278600,0.278500,0.278300,0.278200,0.278100,0.278000,0.277900,0.277800,0.277700,0.277700,0.277700,0.277600,0.277400,0.277300,0.277000,0.276800,0.276800,0.276600,0.276600,0.276500,0.276500,0.276400,0.276500,0.276600,0.276700,0.276800,1.000000,1.000000,1.000000,1.000000,1.000000,1.000000,1.000000,1.000000,1.000000,1.000000,1.000000,1.000000,1.000000,1.000000,1.000000,1.000000,0.476800,0.476800,1.000000,1.000000,1.000000,1.000000,1.000000,1.000000,1.000000,1.000000,1.000000,1.000000,1.000000,1.000000,1.000000,1.000000,1.000000,1.000000,1.000000,0.466000,0.465700,0.466800,1.000000,1.000000,1.000000,1.000000,1.000000
1.000000,1.000000,1.000000,1.000000,1.000000,1.000000,1.000000,1.000000,1.000000,1.000000,1.000000,1.000000,1.000000,1.000000,1.000000,1.000000,1.000000,1.000000,0.329400,0.314600,0.315300,0.316600,0.316600,0.316800,0.316800,0.316900,0.317000,0.318000,0.318000,0.317900,0.317900,0.318000,0.318200,0.318200,0.318300,0.318400,0.317600,0.318100,0.318700,0.318700,0.319000,0.319800,0.320000,0.320000,0.320000,0.319900,0.319800,0.319800,1.000000,1.000000,1.000000,1.000000,1.000000,1.000000,1.000000,1.000000,1.000000,1.000000,1.000000,1.000000,1.000000,1.000000,1.000000,1.000000,1.000000,1.000000,1.000000,1.000000,1.000000,0.536500,0.536500,0.536500,0.535300,1.000000,1.000000,1.000000,1.000000,1.000000,1.000000,1.000000,1.000000,1.000000,0.535200,1.000000,1.000000,1.000000,1.000000,1.000000,1.000000,0.536500,0.535200,0.532400,0.531200,1.000000,1.000000,1.000000,1.000000,1.000000,1.000000,1.000000,1.000000,1.000000,1.000000,1.000000,1.000000,1.000000,1.000000,1.000000,1.000000,1.000000,1.000000,1.000000,1.000000,1.000000,1.000000,1.000000,1.000000,0.288600,0.288500,0.288400,0.288200,0.287200,0.287100,0.287100,0.287000,0.286800,0.286600,0.286400,0.286400,0.286400,0.286400,0.286300,0.286000,0.285900,0.285800,0.285700,0.285600,0.285400,0.285300,0.285100,0.284900,0.284900,0.284700,0.284600,0.284500,0.284400,0.283700,0.283600,0.283400,0.283300,0.283200,0.283200,0.283200,0.283100,0.283100,0.283000,0.282600,0.282300,0.282200,0.282200,0.282200,0.282300,0.282200,0.281900,0.281700,0.281600,0.281600,0.281600,0.281400,0.281000,0.280800,0.280700,0.280700,0.280600,0.280700,0.280600,0.280500,0.280400,0.280000,0.279900,0.279700,0.279600,0.279500,0.279300,0.279200,0.279000,0.278700,0.278600,0.278500,0.278300,0.278200,0.278100,0.278100,0.278000,0.277900,0.277800,0.277700,0.277700,0.277600,0.277400,0.277300,0.277000,0.276800,0.276800,0.276700,0.276600,0.276500,0.276300,0.275600,0.275500,0.275400,0.275400,0.275400,1.000000,1.000000,1.000000,1.000000,1.000000,1.000000,1.000000,1.000000,1.000000,1.000000,1.000000,1.000000,1.000000,1.000000,0.472500,0.475200,0.476700,0.477100,1.000000,0.481800,1.000000,1.000000,1.000000,1.000000,1.000000,1.000000,1.000000,1.000000,1.000000,1.000000,1.000000,1.000000,1.000000,1.000000,1.000000,0.468900,0.468800,1.000000,1.000000,1.000000,1.000000,1.000000,1.000000
1.000000,1.000000,1.000000,1.000000,1.000000,1.000000,1.000000,1.000000,1.000000,1.000000,1.000000,1.000000,1.000000,1.000000,1.000000,1.000000,1.000000,1.000000,0.329400,0.314600,0.314600,0.316100,0.316700,0.316800,0.316800,0.317000,0.317000,0.317600,0.318100,0.318100,0.318100,0.318200,0.318200,0.318200,0.317900,0.317400,0.317300,0.317300,0.316400,0.316500,0.316600,0.318500,0.318500,0.319100,0.319400,0.319600,0.319600,1.000000,1.000000,1.000000,1.000000,1.000000,1.000000,1.000000,1.000000,1.000000,1.000000,1.000000,1.000000,1.000000,1.000000,1.000000,1.000000,1.000000,1.000000,1.000000,1.000000,1.000000,1.000000,1.000000,0.536500,0.536500,1.000000,1.000000,1.000000,1.000000,1.000000,1.000000,1.000000,1.000000,1.000000,1.000000,0.535300,1.000000,1.000000,1.000000,1.000000,1.000000,1.000000,1.000000,1.000000,1.000000,1.000000,1.000000,1.000000,1.000000,1.000000,1.000000,1.000000,1.000000,1.000000,1.000000,1.000000,1.000000,1.000000,1.000000,1.000000,1.000000,1.000000,1.000000,1.000000,1.000000,1.000000,1.000000,1.000000,1.000000,1.000000,0.288200,0.288100,0.288000,0.287000,0.287000,0.287000,0.287000,0.287000,0.287000,0.286600,0.286400,0.286400,0.286300,0.286300,0.286300,0.286000,0.285900,0.285800,0.285700,0.285600,0.285400,0.285200,0.285000,0.284900,0.284800,0.284600,0.284600,0.284500,0.284400,0.284300,0.283900,0.283500,0.283300,0.283200,0.283100,0.283100,0.283100,0.283000,0.282900,0.282800,0.282800,0.282700,0.282700,0.282400,0.282300,0.282300,0.281500,0.281500,0.281500,0.281600,0.281600,0.281600,0.281500,0.280700,0.280600,0.280600,0.280500,0.280600,0.280600,0.280600,0.280600,0.280100,0.280000,0.279700,0.279600,0.279400,0.279200,0.279100,0.279000,0.278900,0.278700,0.278500,0.278300,0.278300,0.278200,0.278100,0.278100,0.278000,0.277800,0.277700,0.277700,0.277600,0.277400,0.277300,0.276900,0.276800,0.276700,0.276600,0.276600,0.276000,0.275800,0.275600,0.275600,0.275500,0.275500,1.000000,1.000000,1.000000,1.000000,1.000000,1.000000,1.000000,1.000000,1.000000,1.000000,1.000000,1.000000,1.000000,1.000000,1.000000,1.000000,1.000000,1.000000,1.000000,0.477600,0.477800,0.481600,1.000000,1.000000,1.000000,1.000000,1.000000,1.000000,1.000000,1.000000,1.000000,1.000000,1.000000,1.000000,1.000000,1.000000,1.000000,1.000000,1.000000,1.000000,1.000000,1.000000,1.000000,1.000000
1.000000,1.000000,1.000000,1.000000,1.000000,1.000000,1.000000,1.000000,1.000000,1.000000,1.000000,1.000000,1.000000,1.000000,1.000000,1.000000,1.000000,1.000000,1.000000,0.314500,0.315600,0.316600,0.316800,0.316800,0.316900,0.317000,0.317100,0.317800,0.318100,0.318100,0.318200,0.318200,0.318200,0.318100,0.317500,0.317400,0.317300,0.316400,0.316400,0.314600,0.316600,0.316600,0.318500,0.319100,0.319300,0.319400,0.319500,0.319500,1.000000,1.000000,1.000000,1.000000,1.000000,1.000000,1.000000,1.000000,1.000000,1.000000,1.000000,1.000000,1.000000,1.000000,1.000000,1.000000,1.000000,1.000000,1.000000,1.000000,1.000000,1.000000,1.000000,1.000000,1.000000,1.000000,1.000000,1.000000,1.000000,1.000000,1.000000,1.000000,1.000000,1.000000,0.537100,1.000000,1.000000,1.000000,1.000000,1.000000,1.000000,1.000000,1.000000,1.000000,1.000000,1.000000,1.000000,1.000000,1.000000,1.000000,1.000000,1.000000,1.000000,1.000000,1.000000,1.000000,1.000000,1.000000,1.000000,1.000000,1.000000,1.000000,1.000000,1.000000,1.000000,1.000000,1.000000,1.000000,1.000000,0.287600,0.287000,0.286900,0.286900,0.286900,0.286900,0.286900,0.287000,0.287000,0.286900,0.286300,0.286300,0.286300,0.286400,0.286300,0.286100,0.286000,0.285900,0.285700,0.285700,0.285000,0.284700,0.284600,0.284400,0.284400,0.284500,0.284500,0.284400,0.284400,0.284300,0.283900,0.283800,0.283400,0.283300,0.283100,0.283100,0.283000,0.283000,0.282900,0.282800,0.282800,0.282800,0.282700,0.282500,0.282400,0.282300,0.281400,0.281400,0.281500,0.281500,0.281600,0.281700,0.281700,0.280600,0.280500,0.280400,0.280400,0.280500,0.280600,0.280700,0.280700,0.280600,0.280500,0.279800,0.279600,0.279200,0.279200,0.279100,0.279000,0.279000,0.278800,0.278500,0.278300,0.278300,0.278200,0.278200,0.278200,0.278000,0.277900,0.277700,0.277700,0.277600,0.277400,0.277200,0.276800,0.276700,0.276600,0.276600,0.276600,0.276000,0.275800,0.275700,0.275700,0.275600,0.275500,1.000000,1.000000,1.000000,1.000000,1.000000,1.000000,1.000000,1.000000,1.000000,1.000000,1.000000,1.000000,1.000000,1.000000,1.000000,1.000000,1.000000,1.000000,1.000000,0.476000,0.477700,1.000000,0.478700,1.000000,1.000000,1.000000,1.000000,1.000000,1.000000,1.000000,1.000000,1.000000,1.000000,1.000000,1.000000,1.000000,1.000000,1.000000,1.000000,1.000000,1.000000,1.000000,1.000000,1.000000
1.000000,1.000000,1.000000,1.000000,1.000000,1.000000,1.000000,1.000000,1.000000,1.000000,1.000000,1.000000,1.000000,1.000000,1.000000,1.000000,1.000000,1.000000,1.000000,1.000000,1.000000,0.316800,0.316800,0.316900,0.316900,0.317000,0.317500,0.317900,0.318100,0.318300,0.318300,0.318200,0.318100,0.318000,0.317700,1.000000,1.000000,1.000000,1.000000,0.314500,0.314600,0.316600,1.000000,1.000000,1.000000,1.000000,0.319400,1.000000,1.000000,1.000000,1.000000,1.000000,1.000000,1.000000,1.000000,1.000000,1.000000,1.000000,1.000000,1.000000,1.000000,1.000000,1.000000,1.000000,1.000000,1.000000,1.000000,1.000000,1.000000,1.000000,1.000000,1.000000,1.000000,1.000000,1.000000,1.000000,1.000000,1.000000,1.000000,1.000000,1.000000,1.000000,1.000000,1.000000,1.000000,1.000000,1.000000,1.000000,1.000000,1.000000,1.000000,1.000000,1.000000,1.000000,1.000000,1.000000,1.000000,1.000000,1.000000,1.000000,1.000000,1.000000,1.000000,1.000000,1.000000,1.000000,1.000000,1.000000,1.000000,1.000000,1.000000,1.000000,1.000000,1.000000,1.000000,1.000000,1.000000,0.286800,0.286800,0.286800,0.286800,0.286800,0.286800,0.286800,0.286900,0.286900,0.286900,0.286300,0.286300,0.286300,0.286400,0.286400,0.286400,0.286000,0.286000,0.285800,0.285700,0.283900,0.283900,0.283900,0.284000,0.284200,0.284200,0.284400,0.284400,0.284300,0.284300,0.283900,0.283700,0.283500,0.283400,0.283200,0.283100,0.283000,0.283000,0.282900,0.281100,0.281000,0.280800,0.280700,0.280700,0.280800,0.280100,0.280000,0.280000,0.280000,0.281400,0.281600,0.281700,0.281700,0.280600,0.280400,0.280200,0.280100,0.280400,0.280600,0.280700,0.280700,0.280600,0.280500,0.280300,0.280100,0.279100,0.279100,0.279100,0.279000,0.279000,0.278900,0.278600,0.278300,0.278200,0.278200,0.278200,0.278200,0.278000,0.277800,0.277700,0.277600,0.277600,0.277200,0.277100,0.276700,0.276600,0.276500,0.276500,0.276600,0.276500,0.276300,0.275900,0.275800,0.275800,0.275700,1.000000,1.000000,1.000000,1.000000,1.000000,1.000000,1.000000,1.000000,1.000000,1.000000,1.000000,1.000000,1.000000,1.000000,1.000000,1.000000,1.000000,1.000000,1.000000,0.476000,0.477600,0.477600,1.000000,1.000000,1.000000,1.000000,1.000000,1.000000,1.000000,1.000000,1.000000,1.000000,1.000000,1.000000,1.000000,1.000000,1.000000,1.000000,1.000000,1.000000,1.000000,1.000000,1.000000,1.000000
1.000000,1.000000,1.000000,1.000000,1.000000,1.000000,1.000000,1.000000,1.000000,1.000000,1.000000,1.000000,1.000000,1.000000,1.000000,1.000000,1.000000,1.000000,1.000000,1.000000,1.000000,1.000000,1.000000,1.000000,0.319200,0.319200,0.319100,0.319100,0.319500,1.000000,1.000000,1.000000,0.318100,0.317900,0.317500,1.000000,1.000000,1.000000,0.314700,0.314600,1.000000,1.000000,1.000000,1.000000,1.000000,1.000000,1.000000,1.000000,1.000000,1.000000,1.000000,1.000000,1.000000,1.000000,1.000000,1.000000,1.000000,1.000000,1.000000,1.000000,1.000000,1.000000,1.000000,1.000000,1.000000,1.000000,1.000000,1.000000,1.000000,1.000000,1.000000,1.000000,1.000000,1.000000,1.000000,1.000000,1.000000,1.000000,1.000000,1.000000,1.000000,1.000000,1.000000,1.000000,1.000000,1.000000,1.000000,1.000000,1.000000,1.000000,1.000000,1.000000,1.000000,1.000000,1.000000,1.000000,1.000000,1.000000,1.000000,1.000000,1.000000,1.000000,1.000000,1.000000,1.000000,1.000000,1.000000,1.000000,1.000000,1.000000,1.000000,1.000000,1.000000,1.000000,1.000000,1.000000,1.000000,0.286200,0.285900,0.286000,0.286600,0.286500,0.286500,0.286500,0.286600,0.286700,0.286000,0.286000,0.286100,0.286200,0.286300,0.286400,0.286000,0.286000,0.285900,0.285800,0.285700,0.283900,0.283900,0.283900,0.284000,0.284100,0.284200,0.284300,0.284300,0.284300,0.284300,0.283600,0.283600,0.283400,0.283400,0.283400,0.283300,0.283100,0.283000,0.281400,0.281200,0.281000,0.280800,0.280600,0.280300,0.280200,0.280100,0.280100,0.280100,0.280100,0.280100,0.281600,0.281700,0.281600,0.280500,0.280400,0.280100,0.279900,0.279800,0.279600,0.279700,0.279800,0.280200,0.280300,0.279200,0.279000,0.278900,0.278800,0.278900,0.278900,0.278900,0.278900,0.278000,0.277700,0.277200,0.277200,0.277200,0.277300,0.277400,0.277400,0.276700,0.276100,0.275800,0.275800,0.276700,0.276300,0.276100,0.276000,0.276000,0.276500,0.276400,0.276300,0.276100,0.276000,0.275900,0.275900,1.000000,1.000000,1.000000,1.000000,1.000000,1.000000,1.000000,1.000000,1.000000,1.000000,1.000000,1.000000,1.000000,1.000000,1.000000,1.000000,1.000000,1.000000,1.000000,1.000000,0.477500,1.000000,1.000000,1.000000,1.000000,1.000000,1.000000,1.000000,1.000000,1.000000,1.000000,1.000000,1.000000,1.000000,1.000000,1.000000,1.000000,1.000000,1.000000,1.000000,1.000000,1.000000,1.000000,1.000000
1.000000,1.000000,1.000000,1.000000,1.000000,1.000000,1.000000,1.000000,1.000000,1.000000,1.000000,1.000000,1.000000,1.000000,1.000000,1.000000,1.000000,1.000000,1.000000,1.000000,1.000000,1.000000,1.000000,1.000000,1.000000,0.319600,1.000000,1.000000,1.000000,1.000000,1.000000,1.000000,1.000000,1.000000,1.000000,1.000000,1.000000,1.000000,1.000000,1.000000,1.000000,1.000000,1.000000,1.000000,1.000000,1.000000,1.000000,1.000000,1.000000,1.000000,1.000000,1.000000,1.000000,1.000000,1.000000,1.000000,1.000000,1.000000,1.000000,1.000000,1.000000,1.000000,1.000000,1.000000,1.000000,1.000000,1.000000,1.000000,1.000000,1.000000,1.000000,1.000000,1.000000,1.000000,1.000000,1.000000,1.000000,1.000000,1.000000,1.000000,1.000000,1.000000,1.000000,1.000000,1.000000,1.000000,1.000000,1.000000,1.000000,1.000000,1.000000,1.000000,1.000000,1.000000,1.000000,1.000000,1.000000,1.000000,1.000000,1.000000,1.000000,1.000000,1.000000,1.000000,1.000000,1.000000,1.000000,1.000000,1.000000,1.000000,1.000000,1.000000,1.000000,1.000000,1.000000,1.000000,1.000000,1.000000,0.285800,0.285900,0.285900,0.286200,0.286300,0.286400,0.286400,0.285900,0.285800,0.285900,0.286000,0.286000,0.286100,0.286300,0.285900,0.285900,0.285900,0.285800,0.285700,0.284000,0.284000,0.284000,0.284000,0.284100,0.284100,0.284200,0.282400,0.282400,0.282500,0.282600,0.282800,0.283000,0.283100,0.283300,0.283300,0.283100,0.281900,0.281500,0.281200,0.281100,0.280800,0.280400,0.280300,0.280200,0.280200,0.280100,0.280100,0.280100,0.280200,0.280300,0.280600,0.280600,0.280400,0.280100,0.279700,0.279600,0.279600,0.279600,0.279500,0.279600,0.279800,0.279800,0.279000,0.278800,0.278800,0.278700,0.278700,0.278700,0.278700,0.278100,0.277800,0.277400,0.277200,0.277200,0.277200,0.277200,0.277300,0.277200,0.276000,0.275800,0.275700,0.275700,0.275800,0.275900,0.275800,0.275800,0.275800,0.275800,0.276400,0.276300,0.275700,0.275900,0.275900,0.275900,0.275900,1.000000,1.000000,1.000000,1.000000,1.000000,1.000000,1.000000,1.000000,1.000000,1.000000,1.000000,1.000000,1.000000,1.000000,1.000000,1.000000,1.000000,1.000000,1.000000,1.000000,1.000000,1.000000,1.000000,1.000000,1.000000,1.000000,1.000000,1.000000,1.000000,1.000000,1.000000,1.000000,1.000000,1.000000,1.000000,1.000000,1.000000,1.000000,1.000000,1.000000,1.000000,1.000000,1.000000
1.000000,1.000000,1.000000,1.000000,1.000000,1.000000,1.000000,1.000000,1.000000,1.000000,1.000000,1.000000,1.000000,1.000000,1.000000,1.000000,1.000000,1.000000,1.000000,1.000000,1.000000,1.000000,1.000000,1.000000,1.000000,1.000000,1.000000,1.000000,1.000000,1.000000,1.000000,1.000000,1.000000,1.000000,1.000000,1.000000,1.000000,1.000000,1.000000,1.000000,1.000000,1.000000,1.000000,1.000000,1.000000,1.000000,1.000000,1.000000,1.000000,1.000000,1.000000,1.000000,1.000000,1.000000,1.000000,1.000000,1.000000,1.000000,1.000000,1.000000,1.000000,1.000000,1.000000,1.000000,1.000000,1.000000,1.000000,1.000000,1.000000,1.000000,1.000000,1.000000,1.000000,1.000000,1.000000,1.000000,1.000000,1.000000,1.000000,1.000000,1.000000,1.000000,1.000000,1.000000,1.000000,1.000000,1.000000,1.000000,1.000000,1.000000,1.000000,1.000000,1.000000,1.000000,1.000000,1.000000,1.000000,1.000000,1.000000,1.000000,1.000000,1.000000,1.000000,1.000000,1.000000,1.000000,1.000000,1.000000,1.000000,1.000000,1.000000,1.000000,1.000000,1.000000,1.000000,1.000000,1.000000,0.285600,0.285700,0.285700,0.285700,0.285800,0.284700,0.283700,0.285100,0.285300,0.285600,0.285700,0.285800,0.285800,0.285000,0.284900,0.285000,0.285800,0.285800,0.285800,0.285700,0.285000,0.284000,0.284000,0.284100,0.284100,0.284100,0.284200,0.282300,0.282300,0.282500,0.282600,0.282800,0.282900,0.283000,0.283000,0.282500,0.282300,0.282100,0.282000,0.281300,0.281100,0.281000,0.280900,0.280300,0.280300,0.281400,0.281500,0.280300,0.280200,0.280300,0.280300,0.280400,0.280500,0.280300,0.279400,0.279300,0.279600,0.279600,0.279400,0.279300,0.279000,0.278800,0.278800,0.278700,0.278600,0.278600,0.278400,0.278400,0.278200,0.278100,0.277900,0.277600,0.277300,0.277100,0.277000,0.277000,0.277100,0.277100,0.276300,0.275800,0.275700,0.275600,0.275400,0.275000,0.274700,0.275600,0.275700,0.275700,0.275600,0.275200,0.275200,0.275200,0.275400,0.275800,0.275800,0.275900,0.275900,1.000000,1.000000,1.000000,1.000000,1.000000,1.000000,1.000000,1.000000,1.000000,1.000000,1.000000,1.000000,1.000000,1.000000,1.000000,1.000000,1.000000,1.000000,1.000000,1.000000,1.000000,1.000000,1.000000,1.000000,1.000000,1.000000,1.000000,1.000000,1.000000,1.000000,1.000000,1.000000,1.000000,1.000000,1.000000,1.000000,1.000000,1.000000,1.000000,1.000000,1.000000,1.000000
1.000000,1.000000,1.000000,1.000000,1.000000,1.000000,1.000000,1.000000,1.000000,1.000000,1.000000,1.000000,1.000000,1.000000,1.000000,1.000000,1.000000,1.000000,1.000000,1.000000,1.000000,1.000000,1.000000,1.000000,1.000000,1.000000,1.000000,1.000000,1.000000,1.000000,1.000000,1.000000,1.000000,1.000000,1.000000,1.000000,1.000000,1.000000,1.000000,1.000000,1.000000,1.000000,1.000000,1.000000,1.000000,1.000000,1.000000,1.000000,1.000000,1.000000,1.000000,1.000000,1.000000,1.000000,1.000000,1.000000,1.000000,1.000000,1.000000,1.000000,1.000000,1.000000,1.000000,1.000000,1.000000,1.000000,1.000000,1.000000,1.000000,1.000000,1.000000,1.000000,1.000000,1.000000,1.000000,1.000000,1.000000,1.000000,1.000000,1.000000,1.000000,1.000000,1.000000,1.000000,1.000000,1.000000,1.000000,1.000000,1.000000,1.000000,1.000000,1.000000,1.000000,1.000000,1.000000,1.000000,1.000000,1.000000,1.000000,1.000000,1.000000,1.000000,1.000000,1.000000,1.000000,1.000000,1.000000,1.000000,1.000000,1.000000,1.000000,1.000000,1.000000,1.000000,1.000000,1.000000,1.000000,0.285500,0.285500,0.285600,0.285600,0.284900,0.283700,0.283700,0.283600,0.285300,0.285500,0.285600,0.285700,0.285700,0.284600,0.284800,0.284900,0.285700,0.285700,0.285700,0.285700,0.284900,0.284400,0.284200,0.284100,0.284100,0.284100,0.282300,0.281300,0.281200,0.282400,0.282600,0.282800,0.282800,0.282900,0.282900,0.282300,0.282200,0.282100,0.282100,0.281800,0.281200,0.281100,0.281100,0.281200,0.281300,0.281500,0.281600,0.281700,0.280300,0.280300,0.280200,0.280000,0.279800,0.279000,0.279000,0.278700,0.278600,0.279500,0.279400,0.279100,0.278900,0.278800,0.278700,0.278600,0.278500,0.278500,0.278400,0.278300,0.278100,0.278000,0.277900,0.277500,0.277200,0.276900,0.276900,0.276900,0.276900,0.276900,0.276000,0.275800,0.275700,0.275600,0.275100,0.274900,0.274400,0.274000,0.274400,0.274900,0.275200,0.275200,0.275200,0.275200,0.275200,0.275700,0.275800,0.275800,0.275900,1.000000,1.000000,1.000000,1.000000,1.000000,1.000000,1.000000,1.000000,1.000000,1.000000,1.000000,1.000000,1.000000,1.000000,1.000000,1.000000,1.000000,1.000000,1.000000,1.000000,1.000000,1.000000,1.000000,1.000000,1.000000,1.000000,1.000000,1.000000,1.000000,1.000000,1.000000,1.000000,1.000000,1.000000,1.000000,1.000000,1.000000,1.000000,1.000000,1.000000,1.000000,1.000000
1.000000,1.000000,1.000000,1.000000,1.000000,1.000000,1.000000,1.000000,1.000000,1.000000,1.000000,1.000000,1.000000,1.000000,1.000000,1.000000,1.000000,1.000000,1.000000,1.000000,1.000000,1.000000,1.000000,1.000000,1.000000,1.000000,1.000000,1.000000,1.000000,1.000000,1.000000,1.000000,1.000000,1.000000,1.000000,1.000000,1.000000,1.000000,1.000000,1.000000,1.000000,1.000000,1.000000,1.000000,1.000000,1.000000,1.000000,1.000000,1.000000,1.000000,1.000000,1.000000,1.000000,1.000000,1.000000,1.000000,1.000000,1.000000,1.000000,1.000000,1.000000,1.000000,1.000000,1.000000,1.000000,1.000000,1.000000,1.000000,1.000000,1.000000,1.000000,1.000000,1.000000,1.000000,1.000000,1.000000,1.000000,1.000000,1.000000,1.000000,1.000000,1.000000,1.000000,1.000000,1.000000,1.000000,1.000000,1.000000,1.000000,1.000000,1.000000,1.000000,1.000000,1.000000,1.000000,1.000000,1.000000,1.000000,1.000000,1.000000,1.000000,1.000000,1.000000,1.000000,1.000000,1.000000,1.000000,1.000000,1.000000,1.000000,1.000000,1.000000,1.000000,1.000000,1.000000,1.000000,1.000000,0.285400,0.285400,0.285400,0.284900,0.284800,0.283700,0.281800,0.281800,0.283600,0.285400,0.285500,0.285600,0.284500,0.284500,0.284800,0.284800,0.285600,0.285700,0.285700,0.285600,0.284800,0.284600,0.284400,0.284000,0.284000,0.283300,0.282200,0.281200,0.281200,0.281100,0.281100,0.282800,0.282800,0.282800,0.282700,0.282200,0.282200,0.282100,0.282100,0.282100,0.281600,0.281200,0.281200,0.281300,0.281400,0.281600,0.281600,0.281700,0.280300,0.279800,0.279000,0.279000,0.279000,0.277400,0.277400,0.277400,0.277400,0.279500,0.279400,0.279000,0.278800,0.278700,0.278600,0.278500,0.278500,0.278400,0.278300,0.278200,0.278000,0.277900,0.277800,0.277200,0.276900,0.276800,0.276800,0.276800,0.276800,0.276700,0.276200,0.275800,0.275700,0.275500,0.275000,0.274800,0.273800,0.273600,0.273600,0.273600,0.275100,0.275100,0.275100,0.275100,0.275100,0.275100,0.275800,0.275800,0.275900,1.000000,1.000000,1.000000,1.000000,1.000000,1.000000,1.000000,1.000000,1.000000,1.000000,1.000000,1.000000,1.000000,1.000000,1.000000,1.000000,1.000000,1.000000,1.000000,1.000000,1.000000,1.000000,1.000000,1.000000,1.000000,1.000000,1.000000,1.000000,1.000000,1.000000,1.000000,1.000000,1.000000,1.000000,1.000000,1.000000,1.000000,1.000000,1.000000,1.000000,1.000000,1.000000
1.000000,1.000000,1.000000,1.000000,1.000000,1.000000,1.000000,1.000000,1.000000,1.000000,1.000000,1.000000,1.000000,1.000000,1.000000,1.000000,1.000000,1.000000,1.000000,1.000000,1.000000,1.000000,1.000000,1.000000,1.000000,1.000000,1.000000,1.000000,1.000000,1.000000,1.000000,1.000000,1.000000,1.000000,1.000000,1.000000,1.000000,1.000000,1.000000,1.000000,1.000000,1.000000,1.000000,1.000000,1.000000,1.000000,1.000000,1.000000,1.000000,1.000000,1.000000,1.000000,1.000000,1.000000,1.000000,1.000000,1.000000,1.000000,1.000000,1.000000,1.000000,1.000000,1.000000,1.000000,1.000000,1.000000,1.000000,1.000000,1.000000,1.000000,1.000000,1.000000,1.000000,1.000000,1.000000,1.000000,1.000000,1.000000,1.000000,1.000000,1.000000,1.000000,1.000000,1.000000,1.000000,1.000000,1.000000,1.000000,1.000000,1.000000,1.000000,1.000000,1.000000,1.000000,1.000000,1.000000,1.000000,1.000000,1.000000,1.000000,1.000000,1.000000,1.000000,1.000000,1.000000,1.000000,1.000000,1.000000,1.000000,1.000000,1.000000,1.000000,1.000000,1.000000,1.000000,1.000000,1.000000,0.282900,0.282900,0.284700,0.284800,0.284800,0.283700,0.281800,0.281800,0.281800,0.281800,0.281800,0.283400,0.283500,0.283500,0.284600,0.284700,0.285500,0.285600,0.285700,0.285600,0.284700,0.284600,0.283700,0.282800,0.282800,0.283000,0.283400,0.282100,0.281200,0.281100,0.281100,0.281700,0.282800,0.282700,0.282000,0.280700,0.282200,0.282200,0.282200,0.282300,0.282300,0.282400,0.281400,0.281400,0.281500,0.281700,0.281700,0.281600,0.281600,0.279600,0.279000,0.279000,0.279000,0.277400,0.277400,0.277400,0.277400,0.279600,0.279600,0.279400,0.278800,0.278700,0.278600,0.278500,0.278400,0.278300,0.278100,0.278000,0.277800,0.277700,0.277100,0.276800,0.276700,0.276700,0.276700,0.276700,0.276600,0.276600,0.276600,0.276100,0.275700,0.275500,0.275400,0.274800,0.273700,0.273600,0.273600,0.273600,0.274200,0.275100,0.275100,0.275000,0.275000,1.000000,0.275100,0.277100,1.000000,1.000000,1.000000,1.000000,1.000000,1.000000,1.000000,1.000000,1.000000,1.000000,1.000000,1.000000,1.000000,1.000000,1.000000,1.000000,1.000000,1.000000,1.000000,1.000000,1.000000,1.000000,1.000000,1.000000,1.000000,1.000000,1.000000,1.000000,1.000000,1.000000,1.000000,1.000000,1.000000,1.000000,1.000000,1.000000,1.000000,1.000000,1.000000,1.000000,1.000000,1.000000,1.000000
1.000000,1.000000,1.000000,1.000000,1.000000,1.000000,1.000000,1.000000,1.000000,1.000000,1.000000,1.000000,1.000000,1.000000,1.000000,1.000000,1.000000,1.000000,1.000000,1.000000,1.000000,1.000000,1.000000,1.000000,1.000000,1.000000,1.000000,1.000000,1.000000,1.000000,1.000000,1.000000,1.000000,1.000000,1.000000,1.000000,1.000000,1.000000,1.000000,1.000000,1.000000,1.000000,1.000000,1.000000,1.000000,1.000000,1.000000,1.000000,1.000000,1.000000,1.000000,1.000000,1.000000,1.000000,1.000000,1.000000,1.000000,1.000000,1.000000,1.000000,1.000000,1.000000,1.000000,1.000000,1.000000,1.000000,1.000000,1.000000,1.000000,1.000000,1.000000,1.000000,1.000000,1.000000,1.000000,1.000000,1.000000,1.000000,1.000000,1.000000,1.000000,1.000000,1.000000,1.000000,1.000000,1.000000,1.000000,1.000000,1.000000,1.000000,1.000000,1.000000,1.000000,1.000000,1.000000,1.000000,1.000000,1.000000,1.000000,1.000000,1.000000,1.000000,1.000000,1.000000,1.000000,1.000000,1.000000,1.000000,1.000000,1.000000,1.000000,1.000000,1.000000,1.000000,1.000000,1.000000,1.000000,0.282800,0.282800,0.282800,0.284600,1.000000,0.284900,0.285100,0.283600,0.281800,0.281800,0.281800,0.283400,0.283500,0.283600,0.284400,0.284600,0.285400,0.285600,0.285600,0.285700,0.285800,0.284700,0.284500,0.282700,0.282700,0.282700,0.283300,0.283400,0.282200,0.281200,0.281100,0.281000,0.280900,0.280800,0.280800,0.280700,0.280700,0.282200,0.282200,0.282300,0.282400,0.282300,0.281400,0.281500,0.281500,0.281600,0.281700,0.281600,0.281500,0.281400,0.279800,0.279000,0.279000,0.278900,0.277400,0.277400,0.278600,0.279800,0.279800,0.279700,0.278800,0.278700,0.278700,0.278500,0.278400,0.278300,0.278000,0.277800,0.277500,0.277000,0.276800,0.276700,0.276700,0.276700,0.276700,0.276600,0.276600,0.276600,0.276600,0.276700,0.276800,0.276900,0.277000,0.275600,0.275600,0.273600,0.273600,0.273600,0.275400,0.275300,0.275100,0.275000,0.275000,0.275000,0.277100,0.278100,0.278100,1.000000,1.000000,1.000000,1.000000,1.000000,1.000000,1.000000,1.000000,1.000000,1.000000,1.000000,1.000000,1.000000,1.000000,1.000000,1.000000,1.000000,1.000000,1.000000,1.000000,1.000000,1.000000,1.000000,1.000000,1.000000,1.000000,1.000000,1.000000,1.000000,1.000000,1.000000,1.000000,1.000000,1.000000,1.000000,1.000000,1.000000,1.000000,1.000000,1.000000,1.000000,1.000000
1.000000,1.000000,1.000000,1.000000,1.000000,1.000000,1.000000,1.000000,1.000000,1.000000,1.000000,1.000000,1.000000,1.000000,1.000000,1.000000,1.000000,1.000000,1.000000,1.000000,1.000000,1.000000,1.000000,1.000000,1.000000,1.000000,1.000000,1.000000,1.000000,1.000000,1.000000,1.000000,1.000000,1.000000,1.000000,1.000000,1.000000,1.000000,1.000000,1.000000,1.000000,1.000000,1.000000,1.000000,1.000000,1.000000,1.000000,1.000000,1.000000,1.000000,1.000000,1.000000,1.000000,1.000000,1.000000,1.000000,1.000000,1.000000,1.000000,1.000000,1.000000,1.000000,1.000000,1.000000,1.000000,1.000000,1.000000,1.000000,1.000000,1.000000,1.000000,1.000000,1.000000,1.000000,1.000000,1.000000,1.000000,0.265300,1.000000,1.000000,1.000000,1.000000,1.000000,1.000000,1.000000,1.000000,1.000000,1.000000,1.000000,1.000000,1.000000,1.000000,1.000000,1.000000,1.000000,1.000000,1.000000,1.000000,1.000000,1.000000,1.000000,1.000000,1.000000,1.000000,1.000000,1.000000,1.000000,1.000000,1.000000,1.000000,1.000000,1.000000,1.000000,1.000000,1.000000,1.000000,1.000000,0.282800,0.282800,0.282800,0.284600,0.284800,0.285200,0.285400,0.285400,0.284600,0.284500,0.283900,0.283500,0.283600,0.284300,0.284200,0.284200,0.284900,0.285400,0.285600,0.285700,0.285800,0.285800,0.284400,0.282600,0.282600,0.282600,0.283000,0.283400,0.283400,0.283500,0.282600,0.281100,0.280900,0.280800,0.280800,0.280700,0.282200,0.282200,0.282300,0.282300,0.282300,0.282300,0.281500,0.281500,0.281500,0.281500,0.281600,0.280300,0.280300,0.281400,0.281400,0.281400,0.281500,0.280800,0.280100,0.280000,0.280000,0.279900,0.279900,0.279800,0.278800,0.278700,0.278600,0.278400,0.278200,0.278100,0.277600,0.277300,0.277000,0.276800,0.276800,0.276700,0.276700,0.276700,0.276700,0.276700,0.276700,0.276600,0.276600,0.276700,0.276800,0.276900,0.277000,0.276000,0.275700,0.275600,0.275600,0.275600,0.275600,0.275600,0.275200,0.275000,0.275000,0.275000,1.000000,1.000000,0.278100,0.278100,1.000000,1.000000,1.000000,1.000000,1.000000,1.000000,1.000000,1.000000,1.000000,1.000000,1.000000,1.000000,1.000000,1.000000,1.000000,1.000000,1.000000,1.000000,1.000000,1.000000,1.000000,1.000000,1.000000,1.000000,1.000000,1.000000,1.000000,1.000000,1.000000,1.000000,1.000000,1.000000,1.000000,1.000000,1.000000,1.000000,1.000000,1.000000,1.000000,1.000000,1.000000
1.000000,1.000000,1.000000,1.000000,1.000000,1.000000,1.000000,1.000000,1.000000,1.000000,1.000000,1.000000,1.000000,1.000000,1.000000,1.000000,1.000000,1.000000,1.000000,1.000000,1.000000,1.000000,1.000000,1.000000,1.000000,1.000000,1.000000,1.000000,1.000000,1.000000,1.000000,1.000000,1.000000,1.000000,1.000000,1.000000,1.000000,1.000000,1.000000,1.000000,1.000000,1.000000,1.000000,1.000000,1.000000,1.000000,1.000000,1.000000,1.000000,1.000000,1.000000,1.000000,1.000000,1.000000,1.000000,1.000000,1.000000,1.000000,1.000000,1.000000,1.000000,1.000000,1.000000,1.000000,1.000000,1.000000,1.000000,1.000000,1.000000,1.000000,1.000000,1.000000,1.000000,1.000000,1.000000,1.000000,0.257900,0.257900,0.267700,1.000000,1.000000,1.000000,1.000000,1.000000,1.000000,1.000000,1.000000,1.000000,1.000000,1.000000,1.000000,1.000000,1.000000,1.000000,1.000000,1.000000,1.000000,1.000000,1.000000,1.000000,1.000000,1.000000,1.000000,1.000000,1.000000,1.000000,1.000000,1.000000,1.000000,1.000000,1.000000,1.000000,1.000000,1.000000,1.000000,1.000000,1.000000,1.000000,1.000000,0.284200,0.284300,0.287400,0.287500,0.288200,0.288300,0.288400,0.288100,0.285800,0.284900,0.284300,0.284200,0.284200,0.284100,0.284300,0.285300,0.285700,0.285700,0.285800,0.284400,0.284300,0.282600,0.282600,0.282700,0.282800,0.283000,0.283300,0.283500,0.283600,0.283700,0.281400,0.281500,0.281800,0.282000,0.283700,0.283500,0.283500,0.282300,0.282300,0.282200,0.281500,0.281300,0.281300,0.281400,0.281600,0.279900,0.279900,0.279800,0.281400,0.281400,0.282800,0.282800,0.281100,0.280200,0.280100,0.280100,0.280100,0.280100,0.278800,0.278700,0.278600,0.278200,0.278100,0.278000,0.277400,0.277200,0.276900,0.276800,0.276800,0.276700,0.276800,0.276800,0.276800,0.276800,0.276800,0.276700,0.276600,0.276700,0.276900,0.277000,0.277100,0.277100,0.275800,0.275700,0.275700,0.275700,0.275700,0.275700,0.274900,0.274800,0.274800,0.274900,0.274900,0.276900,1.000000,1.000000,1.000000,1.000000,1.000000,1.000000,1.000000,1.000000,1.000000,1.000000,1.000000,1.000000,1.000000,1.000000,1.000000,1.000000,1.000000,1.000000,1.000000,1.000000,1.000000,1.000000,1.000000,1.000000,1.000000,1.000000,1.000000,1.000000,1.000000,1.000000,1.000000,1.000000,1.000000,1.000000,1.000000,1.000000,1.000000,1.000000,1.000000,1.000000,1.000000,1.000000,1.000000
1.000000,1.000000,1.000000,1.000000,1.000000,1.000000,1.000000,1.000000,1.000000,1.000000,1.000000,1.000000,1.000000,1.000000,1.000000,1.000000,1.000000,1.000000,1.000000,1.000000,1.000000,1.000000,1.000000,1.000000,1.000000,1.000000,1.000000,1.000000,1.000000,1.000000,1.000000,1.000000,1.000000,1.000000,1.000000,1.000000,1.000000,1.000000,1.000000,1.000000,1.000000,1.000000,1.000000,1.000000,1.000000,1.000000,1.000000,1.000000,1.000000,1.000000,1.000000,1.000000,1.000000,1.000000,1.000000,1.000000,1.000000,1.000000,1.000000,1.000000,1.000000,1.000000,1.000000,1.000000,1.000000,1.000000,1.000000,1.000000,1.000000,1.000000,1.000000,1.000000,1.000000,1.000000,1.000000,1.000000,1.000000,0.263000,1.000000,1.000000,1.000000,1.000000,1.000000,1.000000,1.000000,1.000000,1.000000,1.000000,1.000000,1.000000,1.000000,1.000000,1.000000,1.000000,1.000000,1.000000,1.000000,1.000000,1.000000,1.000000,1.000000,1.000000,1.000000,1.000000,1.000000,1.000000,1.000000,1.000000,1.000000,1.000000,1.000000,1.000000,1.000000,1.000000,1.000000,1.000000,1.000000,1.000000,1.000000,1.000000,0.287300,0.287400,0.288000,0.288200,0.288300,0.288300,0.287100,0.285800,0.285100,0.284400,0.284200,0.284200,0.284100,0.284800,0.285700,0.285700,0.285700,1.000000,0.284300,0.284300,0.282700,0.282700,0.282700,0.282800,0.283000,0.283200,0.283500,0.283600,0.283800,0.283900,0.284000,0.284000,0.283800,0.283600,0.283400,0.283400,0.283400,0.282200,0.282200,0.281100,0.281100,0.281200,0.281300,0.281600,0.279900,0.279900,0.279800,0.279800,0.281400,0.282800,0.282800,0.282700,0.281100,0.281100,0.281000,0.280200,0.280200,0.278800,0.278400,0.278100,0.278000,0.278000,0.277900,0.277400,0.277200,0.276900,0.276800,0.276800,0.276700,0.276800,0.276800,0.276900,0.276900,0.276800,0.276700,0.276500,0.276400,0.276800,0.277000,0.277100,0.277100,0.275800,0.275700,0.275700,0.275700,0.275700,0.275400,0.274900,0.274700,0.274800,0.274800,0.274900,0.276800,1.000000,1.000000,1.000000,1.000000,1.000000,1.000000,1.000000,1.000000,1.000000,1.000000,1.000000,1.000000,1.000000,1.000000,1.000000,1.000000,1.000000,1.000000,1.000000,1.000000,1.000000,1.000000,1.000000,1.000000,1.000000,1.000000,1.000000,1.000000,1.000000,1.000000,1.000000,1.000000,1.000000,1.000000,1.000000,1.000000,1.000000,1.000000,1.000000,1.000000,1.000000,1.000000,1.000000
1.000000,1.000000,1.000000,1.000000,1.000000,1.000000,1.000000,1.000000,1.000000,1.000000,1.000000,1.000000,1.000000,1.000000,1.000000,1.000000,1.000000,1.000000,1.000000,1.000000,1.000000,1.000000,1.000000,1.000000,1.000000,1.000000,1.000000,1.000000,1.000000,1.000000,1.000000,1.000000,1.000000,1.000000,1.000000,1.000000,1.000000,1.000000,1.000000,1.000000,1.000000,1.000000,1.000000,1.000000,1.000000,1.000000,1.000000,1.000000,1.000000,1.000000,1.000000,1.000000,1.000000,1.000000,1.000000,1.000000,1.000000,1.000000,1.000000,1.000000,1.000000,1.000000,1.000000,1.000000,1.000000,1.000000,1.000000,1.000000,1.000000,1.000000,1.000000,1.000000,1.000000,1.000000,1.000000,1.000000,1.000000,1.000000,1.000000,1.000000,1.000000,1.000000,1.000000,1.000000,1.000000,1.000000,1.000000,1.000000,1.000000,1.000000,1.000000,1.000000,1.000000,1.000000,1.000000,1.000000,1.000000,1.000000,1.000000,1.000000,1.000000,1.000000,1.000000,1.000000,1.000000,1.000000,1.000000,1.000000,1.000000,1.000000,1.000000,1.000000,1.000000,1.000000,1.000000,1.000000,1.000000,1.000000,1.000000,1.000000,1.000000,0.287200,0.287400,0.288000,0.288300,0.287000,0.287000,0.285800,0.285700,0.284400,0.284200,0.284200,0.284500,0.285700,0.285700,0.285700,0.285700,0.284200,0.284200,0.284200,0.282800,0.282800,0.282800,0.282800,0.283000,0.283300,0.283500,0.283500,0.283800,0.283900,0.284000,0.284000,0.283400,0.283400,0.283400,0.283300,0.283300,0.282200,0.282200,0.281000,0.281100,0.281100,0.281200,0.281700,0.281400,0.279800,0.279800,0.281200,0.282800,0.282800,0.282800,0.282600,0.282400,0.281000,0.281000,0.280200,0.278600,0.278100,0.277900,0.277800,0.277800,0.277800,0.277700,0.277200,0.277000,0.276800,0.276800,0.276700,0.276700,0.276800,0.276800,0.276900,0.276800,0.276800,0.276400,0.276100,0.275800,0.275600,0.275600,0.277100,0.275800,0.275800,0.275700,0.275600,0.275500,0.274400,0.274400,0.274400,0.274600,0.274700,0.274800,0.274800,0.274900,1.000000,1.000000,1.000000,1.000000,1.000000,1.000000,1.000000,1.000000,1.000000,1.000000,1.000000,1.000000,1.000000,1.000000,1.000000,1.000000,1.000000,1.000000,1.000000,1.000000,1.000000,1.000000,1.000000,1.000000,1.000000,1.000000,1.000000,1.000000,1.000000,1.000000,1.000000,1.000000,1.000000,1.000000,1.000000,1.000000,1.000000,1.000000,1.000000,1.000000,1.000000,1.000000,1.000000
1.000000,1.000000,1.000000,1.000000,1.000000,1.000000,1.000000,1.000000,1.000000,1.000000,1.000000,1.000000,1.000000,1.000000,1.000000,1.000000,1.000000,1.000000,1.000000,1.000000,1.000000,1.000000,1.000000,1.000000,1.000000,1.000000,1.000000,1.000000,1.000000,1.000000,1.000000,1.000000,1.000000,1.000000,1.000000,1.000000,1.000000,1.000000,1.000000,1.000000,1.000000,1.000000,1.000000,1.000000,1.000000,1.000000,1.000000,1.000000,1.000000,1.000000,1.000000,1.000000,1.000000,1.000000,1.000000,1.000000,1.000000,1.000000,1.000000,1.000000,1.000000,1.000000,1.000000,1.000000,1.000000,1.000000,1.000000,1.000000,1.000000,1.000000,1.000000,1.000000,1.000000,1.000000,1.000000,1.000000,1.000000,1.000000,1.000000,1.000000,1.000000,1.000000,1.000000,1.000000,1.000000,1.000000,1.000000,1.000000,1.000000,1.000000,1.000000,1.000000,1.000000,1.000000,1.000000,1.000000,1.000000,1.000000,1.000000,1.000000,1.000000,1.000000,1.000000,1.000000,1.000000,1.000000,1.000000,1.000000,1.000000,1.000000,1.000000,1.000000,1.000000,1.000000,1.000000,1.000000,1.000000,1.000000,1.000000,1.000000,0.286700,0.286600,0.286600,0.287000,0.287000,0.287000,0.285800,0.285800,0.285900,0.285900,0.285900,0.285800,0.285700,0.285700,0.285700,0.285700,0.285700,0.284200,0.284100,0.284100,0.284000,0.284000,0.284000,0.284000,0.283800,0.283500,0.283400,0.283400,0.283400,0.284000,0.283400,0.282900,0.283000,0.283100,0.283100,0.283100,0.283100,0.282200,0.281000,0.281000,0.281000,0.281000,0.281000,0.282200,0.282200,0.281300,0.281200,0.281300,0.282600,0.282600,0.280500,0.280500,0.280400,0.280300,0.280200,0.278400,0.278200,0.278100,0.277800,0.277800,0.277700,0.277700,0.277600,0.277100,0.277000,0.276800,0.276700,0.276700,0.276700,0.276700,0.276700,0.276800,0.276800,0.276500,0.276100,0.275700,0.275500,0.275500,0.275500,0.275600,0.275700,0.275800,0.275700,0.275600,0.275400,0.275000,0.274400,0.274400,0.274500,0.274600,0.274700,0.274800,0.274800,1.000000,1.000000,1.000000,1.000000,1.000000,1.000000,1.000000,1.000000,1.000000,1.000000,1.000000,1.000000,1.000000,1.000000,1.000000,1.000000,1.000000,1.000000,1.000000,1.000000,1.000000,1.000000,1.000000,1.000000,1.000000,1.000000,1.000000,1.000000,1.000000,1.000000,1.000000,1.000000,1.000000,1.000000,1.000000,1.000000,1.000000,1.000000,1.000000,1.000000,1.000000,1.000000,1.000000
