0.558300,0.558300,1.000000,0.558100,0.560300,0.559500,0.557500,1.000000,1.000000,0.556800,0.557700,0.559100,0.559100,0.557700,0.554600,0.554400,0.554400,0.554400,0.554400,0.554500,0.554700,0.554800,0.554800,0.553700,1.000000,1.000000,1.000000,1.000000,1.000000,1.000000,1.000000,1.000000,1.000000,1.000000,0.181300,0.181300,0.181300,0.181300,0.181400,0.181300,0.181300,0.181200,0.181100,0.181100,0.181100,0.181000,0.180900,0.180800,0.180800,0.180700,0.180700,0.180600,0.180500,0.180400,0.180300,0.180200,0.180000,0.180000,0.179800,0.179800,0.179700,0.179700,0.179700,0.179700,0.179700,0.179700,0.179500,0.179400,0.179100,0.179000,0.178900,0.178900,0.178900,0.178900,0.178800,0.178700,0.178700,0.178600,0.178500,0.178300,0.178200,0.178200,0.178100,0.178000,0.178000,0.177900,0.177800,0.177700,0.177600,0.177500,0.177500,0.177400,0.177300,0.177300,0.177200,0.177100,0.177000,0.177000,0.176900,0.176900,0.176800,0.176800,0.176800,0.176700,0.176600,0.176500,0.176500,0.176400,0.176100,0.176000,0.175900,0.176000,0.176000,0.176000,0.176000,0.175900,0.175900,0.175700,0.175600,0.175500,0.175300,0.175100,0.175000,0.175000,0.175000,0.175100,0.175100,0.175000,0.174800,0.174700,0.174600,0.174500,0.174400,0.174400,0.174300,0.174200,0.174100,0.174000,0.174000,0.173900,0.173900,0.173800,0.173700,0.173600,0.173500,0.173400,0.173400,0.173300,0.173200,0.173100,0.173100,0.173000,0.172900,0.172900,0.172800,0.172800,0.172700,0.172600,0.172500,0.171600,0.171500,0.171400,0.171400,0.171300,1.000000,1.000000,0.170800,0.170700,0.170600,0.170700,0.170800,0.170800,0.170700,0.170500,0.170400,0.170400,1.000000,1.000000,0.527300,0.529900,0.529900,0.532700,0.533000,0.533000,1.000000,1.000000,0.489100,0.489000,0.488400,0.486400,0.486300,0.485800,0.485700,0.485700,0.485700,1.000000,0.529500,0.529500,0.529600,0.529600,0.529800,0.528200,0.528200,0.528200,1.000000,1.000000,1.000000,1.000000,1.000000,1.000000,1.000000,1.000000,1.000000,1.000000,1.000000,1.000000,1.000000,1.000000,1.000000,1.000000,1.000000,1.000000,1.000000,0.523200,0.522900,0.523500,0.525200,0.525500,0.524700,0.524700,0.524600,0.523600,0.522500,0.522500,0.522500,0.523700,0.523700,0.524800,0.524800,0.524800,0.524300,0.522600,1.000000,1.000000,0.522400,0.523800,0.523800,0.523800,1.000000,1.000000,1.000000,0.476400,0.476500,0.476500,0.476500,1.000000
1.000000,1.000000,1.000000,0.557900,1.000000,0.559900,1.000000,1.000000,1.000000,0.557600,0.558900,0.559000,0.559100,0.559100,0.555200,0.554400,0.554400,0.554400,0.554400,0.554500,0.554700,0.553700,0.553000,0.553700,0.553800,1.000000,1.000000,1.000000,1.000000,1.000000,1.000000,0.553600,1.000000,1.000000,0.181300,0.181300,0.181400,0.181400,0.181400,0.181400,0.181300,0.181200,0.181100,0.181100,0.181100,0.181000,0.180900,0.180800,0.180700,0.180700,0.180700,0.180600,0.180500,0.180400,0.180300,0.180200,0.180000,0.179900,0.179800,0.179800,0.179700,0.179700,0.179700,0.179700,0.179700,0.179600,0.179500,0.179400,0.179000,0.178900,0.178900,0.178800,0.178800,0.178800,0.178800,0.178700,0.178700,0.178600,0.178500,0.178300,0.178200,0.178200,0.178000,0.178000,0.178000,0.177900,0.177900,0.177700,0.177600,0.177500,0.177500,0.177400,0.177300,0.177300,0.177200,0.177100,0.177000,0.177000,0.176900,0.176800,0.176800,0.176800,0.176700,0.176700,0.176600,0.176500,0.176400,0.176300,0.176100,0.176000,0.175900,0.175900,0.176000,0.176000,0.176000,0.175900,0.175800,0.175700,0.175600,0.175500,0.175200,0.175000,0.175000,0.174900,0.175000,0.175000,0.175000,0.175000,0.174700,0.174600,0.174600,0.174400,0.174400,0.174300,0.174300,0.174200,0.174000,0.174000,0.173800,0.173800,0.173800,0.173700,0.173600,0.173500,0.173400,0.173400,0.173300,0.173200,0.173100,0.173000,0.173000,0.172900,0.172800,0.172800,0.172700,0.172600,0.172600,0.172400,0.172200,0.171600,0.171500,0.171400,0.171300,0.171300,0.171100,0.170800,0.170800,0.170700,0.170600,0.170700,0.170700,0.170700,0.170600,0.170500,0.170400,0.170400,1.000000,1.000000,1.000000,0.529900,0.530000,1.000000,0.532900,0.532900,1.000000,1.000000,0.488800,0.488700,0.488500,0.486300,0.486200,0.485800,0.485800,0.485700,0.485700,1.000000,0.529400,0.529500,0.529500,0.529600,0.528400,0.527300,0.527200,0.528200,1.000000,1.000000,1.000000,1.000000,1.000000,1.000000,1.000000,1.000000,1.000000,1.000000,1.000000,1.000000,1.000000,1.000000,1.000000,1.000000,1.000000,1.000000,1.000000,1.000000,0.522600,0.523400,0.525500,0.525500,0.525600,0.524600,0.524600,0.523600,0.523600,0.522500,0.523700,0.523700,0.523600,0.523700,0.524400,1.000000,1.000000,0.522500,0.522500,0.522500,0.522400,0.523800,0.523800,0.522800,1.000000,1.000000,1.000000,0.476400,0.476400,1.000000,1.000000,1.000000
1.000000,1.000000,0.557900,0.557700,0.557700,1.000000,1.000000,1.000000,0.558400,0.558200,1.000000,0.558800,0.559000,0.557700,0.555400,1.000000,0.554300,0.554300,1.000000,0.554600,0.554800,1.000000,1.000000,1.000000,0.553900,1.000000,1.000000,1.000000,1.000000,0.549800,1.000000,0.549800,0.550000,1.000000,0.181300,0.181300,0.181400,0.181400,0.181500,0.181500,0.181400,0.181300,0.181100,0.181100,0.181000,0.180900,0.180800,0.180700,0.180700,0.180700,0.180600,0.180600,0.180500,0.180300,0.180200,0.180000,0.179900,0.179900,0.179700,0.179700,0.179700,0.179600,0.179600,0.179600,0.179600,0.179600,0.179400,0.179300,0.179000,0.178900,0.178800,0.178800,0.178800,0.178800,0.178800,0.178700,0.178700,0.178500,0.178500,0.178300,0.178200,0.178100,0.178000,0.178000,0.178000,0.177900,0.177900,0.177700,0.177600,0.177400,0.177400,0.177400,0.177300,0.177200,0.177200,0.177100,0.177000,0.176900,0.176800,0.176700,0.176700,0.176700,0.176700,0.176600,0.176500,0.176400,0.176300,0.176200,0.176000,0.176000,0.175900,0.175900,0.175900,0.175900,0.175900,0.175800,0.175800,0.175700,0.175600,0.175400,0.175200,0.174900,0.174800,0.174800,0.174900,0.174900,0.174800,0.174700,0.174400,0.174400,0.174400,0.174300,0.174300,0.174200,0.174100,0.174100,0.173900,0.173300,0.173200,0.173200,0.173600,0.173500,0.173400,0.173300,0.173200,0.173000,0.172900,0.172800,0.172800,0.172700,0.172700,0.172600,0.172400,0.172400,0.172400,0.172300,0.172300,0.171900,0.171800,0.171600,0.171500,0.171400,0.171300,0.171200,0.171000,0.170800,0.170800,0.170700,0.170700,0.170700,0.170700,0.170700,0.170600,0.170500,0.170500,0.170400,1.000000,1.000000,1.000000,1.000000,1.000000,1.000000,1.000000,1.000000,1.000000,1.000000,0.488800,0.486800,0.486600,0.485500,0.486000,0.485900,0.485800,0.485800,0.485800,1.000000,1.000000,0.529300,0.529200,0.528400,0.527600,0.527200,1.000000,1.000000,1.000000,1.000000,1.000000,1.000000,1.000000,1.000000,1.000000,1.000000,1.000000,1.000000,1.000000,1.000000,1.000000,1.000000,1.000000,1.000000,1.000000,1.000000,1.000000,1.000000,1.000000,1.000000,0.525600,0.525800,0.525600,0.525600,0.523500,0.523500,0.523600,0.523600,0.523600,0.523600,0.523600,0.523400,1.000000,1.000000,1.000000,0.520900,0.520800,0.520800,0.520800,0.520800,0.520900,0.520900,1.000000,1.000000,1.000000,0.476300,0.476400,1.000000,1.000000,1.000000
1.000000,0.559800,0.557800,0.556900,0.556800,0.556900,1.000000,1.000000,1.000000,0.558400,0.558500,0.558700,0.553900,0.555500,1.000000,1.000000,0.554300,0.554300,0.554400,0.554900,0.554800,0.554300,0.553900,0.554000,0.553900,1.000000,1.000000,1.000000,1.000000,1.000000,1.000000,1.000000,1.000000,1.000000,0.181200,0.181200,0.181300,0.181400,0.181500,0.181500,0.181400,0.181300,0.181100,0.181000,0.181000,0.180800,0.180700,0.180600,0.180600,0.180500,0.180500,0.180500,0.180400,0.180100,0.180000,0.180000,0.179800,0.179800,0.179700,0.179600,0.179600,0.179600,0.179600,0.179600,0.179500,0.179500,0.179400,0.179300,0.179000,0.178900,0.178800,0.178700,0.178800,0.178800,0.178800,0.178700,0.178600,0.178500,0.178500,0.178300,0.178200,0.178100,0.178000,0.178000,0.178000,0.177900,0.177800,0.177700,0.177600,0.177200,0.177200,0.177200,0.177200,0.177200,0.177000,0.177000,0.176800,0.176700,0.176600,0.176500,0.176500,0.176500,0.176500,0.176400,0.176400,0.176200,0.176100,0.176000,0.175900,0.175900,0.175800,0.175800,0.175800,0.175800,0.175700,0.175700,0.175600,0.175500,0.175100,0.174600,0.174600,0.174600,0.174600,0.174600,0.174600,0.174700,0.174600,0.174500,0.174300,0.174300,0.174200,0.174200,0.174200,0.174100,0.174100,0.174000,0.173600,0.173100,0.173100,0.173100,0.173300,0.173400,0.173300,0.173200,0.173000,0.172800,0.172700,0.172600,0.172600,0.172600,0.172400,0.172400,0.172300,0.172300,0.172200,0.172200,0.172100,0.171900,0.171700,0.171500,0.171400,0.171300,0.171100,0.171100,0.170900,0.170800,0.170800,0.170700,0.170700,0.170700,0.170600,0.170600,0.170600,0.170500,0.170500,0.170500,1.000000,1.000000,1.000000,1.000000,1.000000,1.000000,1.000000,1.000000,1.000000,1.000000,0.487000,0.486900,0.485400,0.485400,0.485800,0.486000,0.486000,0.486000,0.486000,1.000000,1.000000,0.529000,0.528700,0.527400,0.527300,0.527300,1.000000,1.000000,1.000000,1.000000,1.000000,1.000000,1.000000,1.000000,1.000000,1.000000,1.000000,1.000000,1.000000,1.000000,1.000000,1.000000,1.000000,1.000000,1.000000,1.000000,1.000000,1.000000,1.000000,1.000000,0.529600,1.000000,1.000000,1.000000,0.523500,1.000000,1.000000,1.000000,0.523600,1.000000,1.000000,1.000000,1.000000,0.521800,0.520900,0.520900,0.520800,0.520800,0.520800,0.520800,0.520800,0.520900,1.000000,1.000000,0.475900,0.476200,0.476200,1.000000,1.000000,1.000000
0.559700,0.559700,0.559600,0.556700,1.000000,1.000000,1.000000,1.000000,1.000000,1.000000,1.000000,1.000000,1.000000,1.000000,1.000000,1.000000,0.555300,0.555300,0.555400,0.555400,0.555500,0.554900,0.554300,0.554100,0.554000,1.000000,1.000000,1.000000,1.000000,1.000000,1.000000,1.000000,1.000000,1.000000,0.181100,0.181100,0.181200,0.181300,0.181400,0.181500,0.181300,0.181300,0.181100,0.181000,0.180900,0.180700,0.180600,0.180500,0.180500,0.180500,0.180400,0.180400,0.180100,0.179800,0.179800,0.179700,0.179600,0.179600,0.179500,0.179500,0.179500,0.179400,0.179400,0.179400,0.179400,0.179400,0.179400,0.179300,0.179000,0.178900,0.178800,0.178600,0.178600,0.178600,0.178600,0.178600,0.178500,0.178400,0.178300,0.178200,0.178100,0.178000,0.177900,0.177900,0.177800,0.177800,0.177700,0.177500,0.177300,0.177100,0.177100,0.177100,0.177100,0.177100,0.176900,0.176800,0.176700,0.176600,0.176500,0.176500,0.176400,0.176400,0.176400,0.176300,0.176300,0.176100,0.176000,0.175800,0.175800,0.175800,0.175700,0.175700,0.175700,0.175600,0.175600,0.175500,0.175500,0.174700,0.174600,0.174600,0.174500,0.174500,0.174500,0.174400,0.174400,0.174400,0.174300,0.174300,0.174100,0.174000,0.173900,0.173800,0.173700,0.173600,0.173600,0.173500,0.173100,0.173000,0.172900,0.172900,0.172900,0.173000,0.173000,0.172900,0.172700,0.172500,0.172400,0.172400,0.172400,0.172300,0.172200,0.172200,0.172100,0.172100,0.172000,0.172000,0.171900,0.171800,0.171600,0.171500,0.171400,0.171300,0.171100,0.171000,0.170900,0.170800,0.170800,0.170800,0.170700,0.170700,0.170600,0.170600,0.170500,0.170500,0.170400,0.170400,1.000000,1.000000,1.000000,1.000000,1.000000,1.000000,1.000000,1.000000,1.000000,1.000000,0.487000,0.487000,0.485300,0.485300,0.485300,0.485900,0.486000,0.486000,0.486000,1.000000,1.000000,0.529200,0.528700,0.527400,1.000000,0.526400,1.000000,1.000000,1.000000,1.000000,1.000000,1.000000,1.000000,1.000000,1.000000,1.000000,1.000000,1.000000,1.000000,1.000000,1.000000,1.000000,1.000000,1.000000,1.000000,1.000000,1.000000,1.000000,1.000000,1.000000,1.000000,1.000000,1.000000,1.000000,1.000000,1.000000,1.000000,1.000000,1.000000,1.000000,1.000000,1.000000,1.000000,1.000000,0.520900,0.520800,0.520800,0.520800,0.520800,0.520800,0.520800,0.520900,0.520900,1.000000,0.476000,0.475900,0.476300,0.476800,1.000000,1.000000
0.559600,0.559600,0.559500,0.556500,0.554800,0.553300,0.553300,1.000000,1.000000,1.000000,1.000000,1.000000,1.000000,1.000000,0.553100,1.000000,0.553600,0.553700,0.555400,0.555500,0.555500,0.554800,0.554800,0.554800,0.554000,1.000000,1.000000,1.000000,1.000000,1.000000,1.000000,1.000000,1.000000,0.180800,0.180800,0.180800,0.180900,0.181000,0.181200,0.181300,0.181200,0.181100,0.181000,0.180900,0.180800,0.180600,0.180500,0.180300,0.180300,0.180300,0.180200,0.180200,0.180000,0.179700,0.179600,0.179600,0.179500,0.179500,0.179400,0.179400,0.179400,0.179400,0.179400,0.179300,0.179400,0.179400,0.179400,0.179300,0.179100,0.178800,0.178700,0.178600,0.178500,0.178500,0.178500,0.178500,0.178400,0.178300,0.178200,0.178100,0.178000,0.178000,0.177800,0.177800,0.177700,0.177600,0.177500,0.177200,0.177000,0.176900,0.176900,0.176900,0.176800,0.176800,0.176600,0.176500,0.176400,0.176400,0.176300,0.176300,0.176200,0.176200,0.176200,0.176100,0.176000,0.175600,0.175500,0.175400,0.175400,0.175400,0.175400,0.175400,0.175400,0.175300,0.175300,0.175100,0.174900,0.174600,0.174500,0.174500,0.174400,0.174400,0.174300,0.174300,0.174300,0.174300,0.174200,0.174200,0.174000,0.173900,0.173900,0.173700,0.173600,0.173500,0.173500,0.173400,0.173100,0.173000,0.172900,0.172800,0.172800,0.172900,0.172900,0.172800,0.172600,0.172500,0.172400,0.172300,0.172300,0.172200,0.172100,0.172100,0.172000,0.172000,0.172000,0.171900,0.171900,0.171700,0.171600,0.171400,0.171300,0.171200,0.171000,0.170900,0.170800,0.170800,0.170800,0.170800,0.170800,0.170700,0.170600,0.170500,0.170400,0.170400,0.170400,0.170400,1.000000,1.000000,1.000000,1.000000,1.000000,1.000000,1.000000,1.000000,1.000000,1.000000,0.487000,0.487000,0.486800,0.485200,0.485200,0.486000,0.486000,0.486000,0.486000,1.000000,1.000000,0.528700,0.528600,0.527400,1.000000,0.524900,1.000000,1.000000,1.000000,1.000000,1.000000,1.000000,1.000000,1.000000,1.000000,1.000000,1.000000,1.000000,1.000000,1.000000,1.000000,1.000000,1.000000,1.000000,1.000000,1.000000,1.000000,1.000000,1.000000,1.000000,1.000000,1.000000,1.000000,1.000000,1.000000,1.000000,1.000000,1.000000,1.000000,1.000000,1.000000,1.000000,1.000000,1.000000,0.522400,0.521700,0.520800,0.520800,0.520800,0.520800,0.520800,1.000000,0.522200,1.000000,0.476600,0.476600,0.476700,0.476900,0.477000,1.000000
0.559500,0.559500,0.559500,1.000000,1.000000,0.553300,0.553300,1.000000,0.554800,0.552900,0.552800,1.000000,1.000000,1.000000,0.553100,1.000000,0.553600,0.553700,0.553900,0.553900,0.554800,0.554800,0.554800,0.554800,0.553600,1.000000,1.000000,1.000000,1.000000,1.000000,1.000000,1.000000,0.180500,0.180500,0.180700,0.180700,0.180800,0.180700,0.180700,0.180700,0.180800,0.181100,0.181000,0.180900,0.180800,0.180600,0.180500,0.180300,0.180200,0.180200,0.180100,0.180000,0.179800,0.179500,0.179500,0.179400,0.179400,0.179400,0.179300,0.179300,0.179300,0.179300,0.179300,0.179300,0.179300,0.179300,0.179300,0.179300,0.179000,0.178600,0.178600,0.178500,0.178400,0.178300,0.178300,0.178300,0.178000,0.178000,0.178200,0.178000,0.177900,0.177800,0.177700,0.177700,0.177500,0.177400,0.177400,0.177000,0.176900,0.176800,0.176800,0.176800,0.176700,0.176600,0.176500,0.176400,0.176300,0.176200,0.176200,0.176200,0.176200,0.176100,0.176100,0.175900,0.175800,0.175500,0.175400,0.175400,0.175300,0.175300,0.175300,0.175300,0.175200,0.175200,0.175200,0.175000,0.174800,0.174600,0.174500,0.174400,0.174400,0.174300,0.174200,0.174200,0.174200,0.174200,0.174100,0.174100,0.174000,0.173900,0.173800,0.173600,0.173600,0.173500,0.173400,0.173300,0.173100,0.173000,0.172900,0.172800,0.172800,0.172800,0.172800,0.172600,0.172600,0.172400,0.172300,0.172200,0.172200,0.172100,0.172100,0.172100,0.172000,0.172000,0.171900,0.171900,0.171800,0.171600,0.171600,0.171400,0.171300,0.171200,0.171000,0.170900,0.170800,0.170800,0.170800,0.170800,0.170800,0.170700,0.170600,0.170500,0.170400,0.170300,0.170300,0.170300,1.000000,1.000000,1.000000,1.000000,1.000000,1.000000,1.000000,1.000000,1.000000,1.000000,1.000000,0.487100,0.486900,0.485300,0.486000,0.486000,0.486000,0.485900,0.486000,1.000000,1.000000,1.000000,1.000000,1.000000,1.000000,0.524900,1.000000,1.000000,0.526000,1.000000,1.000000,1.000000,1.000000,1.000000,1.000000,1.000000,1.000000,1.000000,1.000000,1.000000,1.000000,1.000000,1.000000,1.000000,1.000000,1.000000,1.000000,1.000000,1.000000,1.000000,1.000000,1.000000,1.000000,1.000000,1.000000,1.000000,1.000000,1.000000,1.000000,1.000000,1.000000,1.000000,1.000000,1.000000,0.522300,0.522300,0.520800,0.520700,1.000000,1.000000,0.521200,0.522200,1.000000,1.000000,1.000000,0.476600,0.476700,0.476900,1.000000,1.000000
0.559400,0.559400,1.000000,1.000000,1.000000,1.000000,1.000000,0.556200,1.000000,0.552800,1.000000,1.000000,1.000000,1.000000,1.000000,0.553600,0.553700,0.553800,0.553900,0.554000,0.554000,0.553900,0.554800,0.554800,0.551700,1.000000,1.000000,1.000000,1.000000,1.000000,1.000000,0.179800,1.000000,0.180500,0.180600,0.180600,0.180600,0.180600,0.180500,0.180500,0.180600,0.180900,0.180900,0.180800,0.180700,0.180500,0.180400,0.180100,0.180000,0.179900,0.179800,0.179700,0.179400,0.179400,0.179300,0.179300,0.179300,0.179200,0.179200,0.179200,0.179100,0.179100,0.179100,0.179000,0.178900,0.178400,0.178200,0.178200,0.178200,0.178300,0.178200,0.178000,0.177900,0.178000,0.177900,0.177900,0.177700,0.177600,0.177600,0.177600,0.177500,0.177500,0.177400,0.177400,0.177400,0.177300,0.177200,0.176900,0.176800,0.176700,0.176700,0.176700,0.176600,0.176500,0.176300,0.176300,0.176200,0.176200,0.176200,0.176100,0.176100,0.176000,0.176000,0.175800,0.175700,0.175400,0.175400,0.175300,0.175200,0.175200,0.175200,0.175200,0.175200,0.175100,0.175100,0.174900,0.174800,0.174600,0.174500,0.174400,0.174300,0.174300,0.174200,0.174100,0.174100,0.174000,0.174000,0.174000,0.173900,0.173800,0.173800,0.173600,0.173500,0.173400,0.173400,0.173300,0.173100,0.173000,0.172900,0.172800,0.172700,0.172600,0.172600,0.172500,0.172400,0.172400,0.172300,0.172200,0.172100,0.172100,0.172100,0.172000,0.172000,0.172000,0.171900,0.171800,0.171800,0.171600,0.171500,0.171400,0.171300,0.171200,0.171000,0.171000,0.170900,0.170900,0.170900,0.170900,0.170900,0.170800,0.170600,0.170500,0.170400,0.170300,0.170300,0.170300,0.170300,1.000000,1.000000,1.000000,1.000000,1.000000,1.000000,1.000000,1.000000,1.000000,1.000000,0.487200,0.487000,0.486100,0.486100,0.486000,0.486000,0.485800,0.485600,1.000000,1.000000,1.000000,1.000000,1.000000,1.000000,1.000000,1.000000,1.000000,0.524900,1.000000,0.524700,0.524400,0.523200,1.000000,1.000000,1.000000,1.000000,1.000000,1.000000,1.000000,1.000000,1.000000,1.000000,1.000000,1.000000,1.000000,1.000000,1.000000,1.000000,1.000000,1.000000,1.000000,1.000000,1.000000,1.000000,1.000000,1.000000,1.000000,1.000000,1.000000,1.000000,1.000000,1.000000,1.000000,1.000000,1.000000,1.000000,1.000000,1.000000,0.517100,0.517100,0.522200,1.000000,1.000000,0.476500,0.476500,0.476200,0.476000,1.000000,1.000000
0.559400,0.559200,0.558700,1.000000,1.000000,0.559100,0.558500,0.558200,0.554700,0.552900,1.000000,0.552800,1.000000,1.000000,1.000000,0.553700,0.553800,0.553900,0.554000,0.554000,1.000000,0.553900,0.553900,1.000000,0.553500,1.000000,1.000000,1.000000,1.000000,1.000000,0.179700,0.179900,0.180000,0.180100,0.180400,0.180400,0.180400,0.180300,0.180100,0.179700,0.179600,0.179700,0.179800,0.180600,0.180600,0.179600,0.179500,0.179500,0.179700,0.179800,0.179700,0.179600,0.179400,0.179300,0.179200,0.179200,0.179200,0.179200,0.179100,0.179100,0.179000,0.179000,0.179000,0.178800,0.178600,0.178300,0.178200,0.178200,0.178200,0.178200,0.178100,0.177800,0.177800,0.177800,0.177800,0.177700,0.177600,0.177500,0.177500,0.177400,0.177400,0.177300,0.177100,0.177100,0.177000,0.177000,0.176900,0.176800,0.176700,0.176700,0.176600,0.176600,0.176500,0.176400,0.176200,0.176100,0.176000,0.176000,0.176000,0.176000,0.176000,0.175900,0.175800,0.175700,0.175600,0.175400,0.175400,0.175300,0.175200,0.175200,0.175200,0.175200,0.175100,0.175100,0.175000,0.174800,0.174700,0.174500,0.174400,0.174400,0.174300,0.174300,0.174200,0.174100,0.174100,0.174000,0.174000,0.174000,0.173900,0.173800,0.173700,0.173600,0.173500,0.173400,0.173400,0.173300,0.173200,0.173100,0.172900,0.172800,0.172700,0.172600,0.172600,0.172400,0.172400,0.172300,0.172200,0.172200,0.172100,0.172100,0.172000,0.172000,0.172000,0.172000,0.171900,0.171900,0.171800,0.171600,0.171500,0.171400,0.171300,0.171200,0.171100,0.171100,0.171000,0.171000,0.171000,0.170900,0.170900,0.170800,0.170600,0.170500,0.170400,0.170300,0.170200,0.170200,0.170300,1.000000,1.000000,1.000000,1.000000,0.530100,0.530100,1.000000,1.000000,1.000000,1.000000,0.487600,0.486700,0.486200,0.486200,0.486000,0.485800,0.485600,0.485600,0.485500,1.000000,1.000000,1.000000,1.000000,1.000000,1.000000,1.000000,1.000000,0.525200,1.000000,0.526200,0.524500,0.524300,0.524300,1.000000,1.000000,1.000000,1.000000,1.000000,1.000000,1.000000,1.000000,1.000000,1.000000,1.000000,1.000000,1.000000,1.000000,1.000000,1.000000,1.000000,1.000000,1.000000,1.000000,1.000000,1.000000,1.000000,1.000000,1.000000,1.000000,1.000000,1.000000,1.000000,1.000000,1.000000,1.000000,1.000000,1.000000,1.000000,1.000000,1.000000,1.000000,1.000000,1.000000,0.474900,0.476400,0.476100,0.476000,1.000000,1.000000
0.559400,0.558500,0.558500,0.558600,0.559100,0.559100,0.559200,0.558400,0.556200,1.000000,1.000000,1.000000,1.000000,1.000000,1.000000,1.000000,0.553900,0.554200,0.554200,0.554100,1.000000,1.000000,0.552000,0.552000,1.000000,1.000000,1.000000,1.000000,1.000000,0.179700,0.179800,0.179900,0.180000,0.180200,0.180300,0.180300,0.180300,0.180000,0.179800,0.179700,0.179600,0.179700,0.179700,0.179700,0.179700,0.179500,0.179500,0.179400,0.179400,0.179500,0.179500,0.179400,0.179300,0.179200,0.179200,0.179200,0.179100,0.179100,0.179000,0.179000,0.178900,0.178800,0.178800,0.178600,0.178500,0.178300,0.178100,0.178000,0.178000,0.177900,0.177800,0.177700,0.177700,0.177600,0.177600,0.177600,0.177500,0.177400,0.177300,0.177200,0.177200,0.177100,0.177100,0.177000,0.176900,0.176900,0.176800,0.176700,0.176700,0.176600,0.176600,0.176600,0.176400,0.176400,0.176100,0.176100,0.176000,0.175900,0.175900,0.175900,0.175900,0.175900,0.175800,0.175600,0.175600,0.175400,0.175400,0.175400,0.175300,0.175200,0.175200,0.175200,0.175100,0.175000,0.175000,0.174800,0.174700,0.174500,0.174500,0.174400,0.174300,0.174300,0.174200,0.174100,0.174100,0.174000,0.174000,0.173900,0.173800,0.173800,0.173700,0.173500,0.173500,0.173400,0.173400,0.173300,0.173200,0.173200,0.172900,0.172800,0.172700,0.172600,0.172500,0.172400,0.172300,0.172300,0.172200,0.172100,0.172000,0.172000,0.172000,0.172000,0.172000,0.172100,0.172000,0.171900,0.171900,0.171700,0.171600,0.171400,0.171300,0.171300,0.171200,0.171200,0.171100,0.171100,0.171100,0.171000,0.170900,0.170800,0.170600,0.170500,0.170300,0.170200,0.170200,0.170200,1.000000,1.000000,1.000000,1.000000,1.000000,0.530600,0.530000,0.529900,1.000000,1.000000,1.000000,1.000000,0.486400,0.486400,0.486200,0.485900,0.485600,0.485600,0.485500,0.485500,1.000000,1.000000,1.000000,1.000000,1.000000,1.000000,1.000000,1.000000,1.000000,1.000000,0.528100,0.528100,0.526500,0.526500,1.000000,1.000000,1.000000,1.000000,1.000000,1.000000,1.000000,1.000000,1.000000,1.000000,1.000000,1.000000,1.000000,1.000000,1.000000,1.000000,1.000000,1.000000,1.000000,1.000000,1.000000,1.000000,1.000000,1.000000,1.000000,1.000000,1.000000,1.000000,1.000000,1.000000,1.000000,1.000000,1.000000,1.000000,1.000000,1.000000,1.000000,1.000000,1.000000,1.000000,0.474900,0.474900,0.475000,1.000000,1.000000,1.000000
0.557300,0.557300,0.558400,0.558500,0.559200,0.559200,0.556200,1.000000,1.000000,1.000000,1.000000,1.000000,0.557000,1.000000,1.000000,1.000000,0.556000,0.555100,0.555000,1.000000,1.000000,0.552000,0.552000,1.000000,0.552000,1.000000,1.000000,1.000000,1.000000,0.179800,0.179800,0.180000,0.180100,0.180200,0.180200,0.180100,0.180000,0.179800,0.179700,0.179700,0.179700,0.179700,0.179700,0.179700,0.179600,0.179500,0.179400,0.179300,0.179300,0.179300,0.179400,0.179400,0.179300,0.179200,0.179200,0.179100,0.179100,0.179000,0.178900,0.178900,0.178800,0.178800,0.178700,0.178600,0.178400,0.178300,0.178100,0.178000,0.177900,0.177800,0.177800,0.177700,0.177700,0.177600,0.177600,0.177600,0.177400,0.177400,0.177200,0.177100,0.177100,0.177000,0.176900,0.176900,0.176800,0.176700,0.176700,0.176600,0.176600,0.176600,0.176600,0.176500,0.176400,0.176300,0.176100,0.175900,0.175800,0.175800,0.175900,0.175900,0.175900,0.175900,0.175800,0.175600,0.175600,0.175500,0.175400,0.175400,0.175300,0.175200,0.175100,0.175100,0.175000,0.175000,0.174900,0.174800,0.174700,0.174600,0.174500,0.174400,0.174300,0.174300,0.174200,0.174100,0.174100,0.174100,0.174000,0.174000,0.173800,0.173700,0.173600,0.173500,0.173400,0.173400,0.173400,0.173300,0.173300,0.173200,0.173100,0.172900,0.172800,0.172600,0.172500,0.172300,0.172300,0.172200,0.172100,0.172100,0.172000,0.171900,0.171900,0.171900,0.172000,0.172100,0.172000,0.172000,0.171900,0.171700,0.171600,0.171400,0.171400,0.171300,0.171200,0.171200,0.171200,0.171100,0.171100,0.171000,0.170900,0.170700,0.170600,0.170400,0.170300,0.170200,0.170200,0.170200,0.170200,1.000000,1.000000,1.000000,1.000000,0.530600,0.529900,0.529900,1.000000,1.000000,1.000000,1.000000,0.486400,0.486400,0.485100,0.485200,0.485300,0.485500,0.485500,1.000000,1.000000,1.000000,1.000000,1.000000,1.000000,1.000000,1.000000,1.000000,1.000000,0.525100,0.528000,0.528000,0.528100,1.000000,1.000000,1.000000,1.000000,1.000000,1.000000,1.000000,1.000000,1.000000,1.000000,1.000000,1.000000,1.000000,1.000000,1.000000,1.000000,1.000000,1.000000,1.000000,1.000000,1.000000,1.000000,1.000000,1.000000,1.000000,1.000000,1.000000,1.000000,1.000000,1.000000,1.000000,1.000000,1.000000,1.000000,1.000000,1.000000,1.000000,1.000000,1.000000,1.000000,1.000000,0.474900,0.474900,0.475000,0.475000,1.000000,1.000000
0.557300,0.557200,0.557200,0.558200,1.000000,1.000000,1.000000,1.000000,1.000000,1.000000,1.000000,0.557200,0.557200,0.557200,1.000000,0.556100,0.556000,0.556000,1.000000,1.000000,1.000000,0.552000,0.552000,0.552000,0.552000,1.000000,1.000000,1.000000,1.000000,0.179800,0.179900,0.180100,0.180100,0.180200,0.180200,0.180000,0.179900,0.179800,0.179700,0.179700,0.179700,0.179700,0.179700,0.179600,0.179600,0.179500,0.179400,0.179200,0.179200,0.179200,0.179200,0.179300,0.179200,0.179200,0.179100,0.179000,0.178900,0.178800,0.178700,0.178700,0.178700,0.178600,0.178600,0.178400,0.178300,0.178200,0.178000,0.177900,0.177800,0.177800,0.177700,0.177700,0.177700,0.177600,0.177600,0.177600,0.177400,0.177300,0.177200,0.177100,0.177000,0.177000,0.176900,0.176900,0.176800,0.176700,0.176600,0.176500,0.176500,0.176500,0.176500,0.176500,0.176400,0.176300,0.176000,0.175900,0.175800,0.175800,0.175800,0.175900,0.175900,0.175900,0.175800,0.175700,0.175600,0.175500,0.175500,0.175400,0.175300,0.175200,0.175100,0.175100,0.175000,0.174900,0.174900,0.174800,0.174700,0.174600,0.174500,0.174400,0.174300,0.174200,0.174100,0.174100,0.174100,0.174000,0.174000,0.173900,0.173700,0.173600,0.173600,0.173500,0.173400,0.173400,0.173400,0.173300,0.173300,0.173200,0.173100,0.173000,0.172800,0.172600,0.172500,0.172300,0.172200,0.172200,0.172100,0.172000,0.171900,0.171900,0.171900,0.171900,0.171900,0.172000,0.172000,0.172000,0.171900,0.171800,0.171700,0.171500,0.171400,0.171400,0.171300,0.171200,0.171200,0.171100,0.171100,0.171000,0.170900,0.170600,0.170500,0.170400,0.170200,0.170200,0.170200,0.170100,1.000000,1.000000,1.000000,1.000000,1.000000,1.000000,1.000000,0.529400,1.000000,1.000000,1.000000,0.487700,0.486400,0.486400,0.485000,0.485100,0.485200,0.485300,0.485500,1.000000,1.000000,1.000000,1.000000,1.000000,1.000000,1.000000,1.000000,1.000000,0.523700,0.525100,0.528000,0.528000,0.528100,1.000000,1.000000,1.000000,1.000000,1.000000,1.000000,1.000000,1.000000,1.000000,1.000000,1.000000,1.000000,1.000000,1.000000,1.000000,1.000000,1.000000,1.000000,1.000000,1.000000,1.000000,1.000000,1.000000,1.000000,1.000000,1.000000,1.000000,1.000000,0.517700,1.000000,1.000000,1.000000,1.000000,1.000000,1.000000,1.000000,1.000000,1.000000,1.000000,1.000000,1.000000,1.000000,0.475000,0.475100,0.475100,1.000000,1.000000
1.000000,0.557300,0.557300,0.558000,1.000000,1.000000,1.000000,0.553600,0.553500,1.000000,1.000000,0.557300,0.557300,0.557400,0.557400,0.556100,0.556000,0.556000,1.000000,1.000000,0.552200,0.552000,0.552000,0.552000,0.552000,1.000000,1.000000,1.000000,1.000000,1.000000,0.180000,0.180100,0.180100,0.180100,0.180100,0.179800,0.179700,0.179700,0.179700,0.179700,0.179800,0.179700,0.179700,0.179600,0.179600,0.179400,0.179400,0.179200,0.179200,0.179200,0.179200,0.179200,0.179200,0.179100,0.179100,0.179000,0.178800,0.178700,0.178600,0.178600,0.178600,0.178600,0.178500,0.178300,0.178200,0.178100,0.178000,0.177900,0.177800,0.177800,0.177700,0.177700,0.177700,0.177700,0.177600,0.177600,0.177400,0.177300,0.177100,0.177100,0.177000,0.176900,0.176900,0.176900,0.176700,0.176700,0.176600,0.176500,0.176400,0.176500,0.176500,0.176500,0.176400,0.176300,0.175900,0.175800,0.175700,0.175700,0.175800,0.175800,0.175900,0.175900,0.175800,0.175800,0.175700,0.175500,0.175500,0.175400,0.175200,0.175200,0.175100,0.175000,0.174900,0.174900,0.174900,0.174800,0.174700,0.174600,0.174500,0.174400,0.174200,0.174200,0.174000,0.174000,0.174000,0.174000,0.174000,0.173800,0.173700,0.173600,0.173600,0.173500,0.173400,0.173400,0.173400,0.173300,0.173200,0.173200,0.173000,0.173000,0.172800,0.172600,0.172500,0.172300,0.172200,0.172100,0.172000,0.172000,0.171900,0.171900,0.171800,0.171800,0.171900,0.172000,0.172000,0.172000,0.171900,0.171800,0.171700,0.171500,0.171400,0.171400,0.171300,0.171200,0.171200,0.171100,0.171100,0.170900,0.170800,0.170500,0.170400,0.170300,0.170200,0.170200,0.170100,0.170100,1.000000,1.000000,1.000000,1.000000,1.000000,1.000000,1.000000,1.000000,0.529700,1.000000,1.000000,0.487700,0.487700,0.486400,0.485000,0.485000,0.485000,0.485100,0.485500,1.000000,1.000000,1.000000,1.000000,1.000000,1.000000,1.000000,1.000000,1.000000,0.523700,0.525100,0.528000,0.528000,1.000000,1.000000,1.000000,1.000000,1.000000,1.000000,1.000000,1.000000,1.000000,1.000000,1.000000,1.000000,1.000000,1.000000,1.000000,1.000000,1.000000,1.000000,1.000000,1.000000,1.000000,1.000000,1.000000,1.000000,1.000000,1.000000,1.000000,1.000000,1.000000,0.517700,0.517800,0.518600,1.000000,1.000000,1.000000,1.000000,1.000000,1.000000,1.000000,1.000000,1.000000,1.000000,0.475200,0.475200,0.475200,0.475200,0.477500,1.000000
0.557300,0.557300,0.557400,0.557700,1.000000,1.000000,0.553700,0.553700,0.553500,0.557100,0.557400,0.557500,0.557500,0.557400,0.557300,1.000000,1.000000,1.000000,1.000000,0.552400,1.000000,0.552000,0.552000,0.551900,0.552000,1.000000,1.000000,1.000000,1.000000,0.179800,0.179900,0.180000,0.180000,0.180000,0.179800,0.179500,0.179500,0.179500,0.179600,0.179700,0.179700,0.179700,0.179600,0.179600,0.179600,0.179400,0.179300,0.179200,0.179100,0.179100,0.179100,0.179200,0.179100,0.179000,0.179000,0.178800,0.178700,0.178600,0.178600,0.178600,0.178600,0.178500,0.178500,0.178200,0.178100,0.178000,0.177900,0.177900,0.177800,0.177800,0.177800,0.177800,0.177800,0.177800,0.177700,0.177600,0.177400,0.177200,0.177000,0.176900,0.176900,0.176900,0.176900,0.176800,0.176700,0.176600,0.176500,0.176400,0.176300,0.176300,0.176400,0.176400,0.176300,0.176200,0.175900,0.175800,0.175700,0.175600,0.175700,0.175700,0.175800,0.175800,0.175800,0.175700,0.175600,0.175500,0.175400,0.175400,0.175100,0.175100,0.175000,0.174900,0.174900,0.174900,0.174800,0.174800,0.174700,0.174600,0.174500,0.174400,0.174200,0.174100,0.173900,0.173900,0.173900,0.173900,0.173900,0.173700,0.173600,0.173600,0.173600,0.173500,0.173500,0.173400,0.173400,0.173300,0.173200,0.173100,0.173000,0.172900,0.172900,0.172600,0.172500,0.172300,0.172200,0.172100,0.172000,0.172000,0.171900,0.171800,0.171800,0.171800,0.171800,0.171900,0.171900,0.171900,0.171800,0.171700,0.171600,0.171500,0.171400,0.171400,0.171200,0.171100,0.171000,0.171000,0.170900,0.170800,0.170600,0.170400,0.170300,0.170200,0.170200,0.170200,0.170100,0.170100,1.000000,1.000000,1.000000,1.000000,1.000000,1.000000,1.000000,1.000000,1.000000,1.000000,1.000000,0.487700,0.487600,0.487600,0.484800,0.484700,0.484700,0.484800,0.485500,1.000000,1.000000,1.000000,1.000000,1.000000,1.000000,1.000000,1.000000,1.000000,1.000000,1.000000,1.000000,1.000000,1.000000,1.000000,1.000000,1.000000,1.000000,1.000000,1.000000,1.000000,1.000000,1.000000,1.000000,1.000000,1.000000,1.000000,1.000000,1.000000,1.000000,1.000000,1.000000,1.000000,1.000000,1.000000,1.000000,1.000000,1.000000,1.000000,1.000000,1.000000,1.000000,0.517600,0.519800,1.000000,0.518600,1.000000,1.000000,1.000000,1.000000,1.000000,1.000000,1.000000,1.000000,1.000000,0.475600,0.475200,0.475300,0.475300,0.475400,0.475400
0.555900,0.557500,0.557800,0.557800,0.555900,0.555900,1.000000,1.000000,0.555900,0.557200,0.557400,0.557500,0.557500,0.557400,0.557300,0.557200,0.555500,0.554600,0.552600,0.552500,0.552400,0.551800,0.551800,0.551800,0.551900,0.554600,1.000000,1.000000,1.000000,0.179700,0.179800,0.180000,0.179900,0.179800,0.179500,0.179400,0.179400,0.179400,0.179300,0.179400,0.179500,0.179500,0.179500,0.179500,0.179500,0.179400,0.179300,0.179200,0.179100,0.179000,0.179000,0.179000,0.178900,0.178900,0.178800,0.178600,0.178500,0.178500,0.178500,0.178500,0.178500,0.178500,0.178400,0.178100,0.178000,0.177900,0.177800,0.177800,0.177800,0.177800,0.177800,0.177800,0.177800,0.177800,0.177800,0.177700,0.177400,0.177100,0.177000,0.176900,0.176800,0.176800,0.176800,0.176800,0.176700,0.176700,0.176500,0.176400,0.176300,0.176300,0.176300,0.176300,0.176200,0.176200,0.176000,0.175800,0.175600,0.175600,0.175600,0.175600,0.175700,0.175700,0.175700,0.175700,0.175600,0.175500,0.175400,0.175300,0.175100,0.175000,0.174900,0.174900,0.174800,0.174800,0.174800,0.174700,0.174700,0.174600,0.174500,0.174400,0.174100,0.174000,0.173700,0.173600,0.173600,0.173500,0.173500,0.173500,0.173500,0.173500,0.173600,0.173500,0.173500,0.173400,0.173300,0.173200,0.173000,0.172900,0.172900,0.172900,0.172900,0.172700,0.172600,0.172300,0.172200,0.172100,0.172000,0.172000,0.171900,0.171900,0.171900,0.171800,0.171800,0.171800,0.171800,0.171800,0.171800,0.171700,0.171600,0.171500,0.171400,0.171300,0.171200,0.171100,0.171000,0.170900,0.170900,0.170700,0.170600,0.170400,0.170300,0.170200,0.170200,0.170200,0.170100,0.170100,0.170100,1.000000,1.000000,1.000000,1.000000,1.000000,1.000000,1.000000,1.000000,1.000000,1.000000,0.487700,0.487600,0.485900,0.484600,0.484600,0.484700,0.484700,0.485500,1.000000,1.000000,1.000000,1.000000,1.000000,1.000000,1.000000,1.000000,1.000000,1.000000,1.000000,1.000000,1.000000,1.000000,1.000000,1.000000,1.000000,1.000000,0.487700,0.487700,1.000000,0.448400,1.000000,1.000000,1.000000,1.000000,1.000000,1.000000,1.000000,1.000000,1.000000,1.000000,1.000000,1.000000,1.000000,1.000000,1.000000,1.000000,1.000000,1.000000,1.000000,1.000000,1.000000,0.519800,0.519800,0.521400,0.521400,1.000000,1.000000,1.000000,1.000000,1.000000,1.000000,1.000000,1.000000,0.478200,0.477000,0.475400,0.475400,0.475400,0.475500
0.556000,0.557800,0.557800,0.557800,0.557600,0.555900,0.555900,0.557100,0.557100,0.557200,0.553900,1.000000,0.554500,0.555700,0.557200,1.000000,1.000000,0.555300,0.555300,0.552500,0.552500,0.551700,0.551700,0.551700,0.553700,0.554600,1.000000,1.000000,0.179600,0.179700,0.179800,0.179800,0.179700,0.179500,0.179400,0.179300,0.179300,0.179200,0.179200,0.179300,0.179300,0.179400,0.179400,0.179400,0.179400,0.179300,0.179300,0.179100,0.179100,0.179000,0.179000,0.178900,0.178800,0.178800,0.178700,0.178600,0.178500,0.178500,0.178500,0.178500,0.178500,0.178400,0.178400,0.178100,0.178000,0.177900,0.177800,0.177800,0.177800,0.177900,0.177900,0.177800,0.177800,0.177800,0.177700,0.177600,0.177500,0.177200,0.177000,0.176900,0.176800,0.176800,0.176800,0.176800,0.176800,0.176700,0.176600,0.176400,0.176300,0.176300,0.176200,0.176200,0.176200,0.176200,0.176000,0.175900,0.175600,0.175600,0.175500,0.175500,0.175500,0.175600,0.175600,0.175600,0.175500,0.175500,0.175400,0.175300,0.175100,0.175000,0.174900,0.174800,0.174800,0.174800,0.174800,0.174700,0.174700,0.174500,0.174400,0.174300,0.174000,0.173900,0.173700,0.173600,0.173500,0.173400,0.173400,0.173400,0.173500,0.173500,0.173500,0.173500,0.173500,0.173300,0.173200,0.173100,0.172900,0.172900,0.172900,0.172900,0.172900,0.172700,0.172600,0.172300,0.172200,0.172100,0.172000,0.172000,0.172000,0.171900,0.171900,0.171900,0.171900,0.171800,0.171700,0.171700,0.171600,0.171500,0.171500,0.171400,0.171300,0.171300,0.171100,0.171000,0.170900,0.170800,0.170800,0.170600,0.170500,0.170300,0.170300,0.170200,0.170200,0.170200,0.170100,0.170100,0.170100,0.170100,1.000000,1.000000,1.000000,1.000000,1.000000,1.000000,1.000000,1.000000,1.000000,0.485400,0.484100,0.484200,0.484200,0.484500,0.484600,0.484600,1.000000,0.484700,1.000000,1.000000,1.000000,1.000000,1.000000,1.000000,1.000000,1.000000,1.000000,1.000000,1.000000,1.000000,1.000000,1.000000,1.000000,1.000000,0.487700,0.483700,0.483700,1.000000,0.448300,0.448300,1.000000,1.000000,1.000000,1.000000,1.000000,1.000000,1.000000,1.000000,1.000000,1.000000,1.000000,1.000000,1.000000,1.000000,1.000000,1.000000,1.000000,1.000000,1.000000,1.000000,1.000000,1.000000,0.521400,1.000000,1.000000,1.000000,1.000000,1.000000,1.000000,1.000000,1.000000,1.000000,0.478200,0.478200,0.477000,0.475400,0.475400,0.475500
0.556200,0.557800,0.557900,0.558000,0.558300,0.562000,0.562000,0.561200,0.558700,0.553900,0.552900,0.553700,0.554000,0.554100,0.554200,1.000000,1.000000,0.555200,1.000000,0.552400,0.552400,0.550500,0.550500,0.551600,0.551500,1.000000,1.000000,1.000000,0.179800,0.179800,0.179900,0.179800,0.179700,0.179500,0.179500,0.179300,0.179300,0.179200,0.179200,0.179200,0.179200,0.179300,0.179400,0.179400,0.179400,0.179300,0.179200,0.179100,0.179000,0.179000,0.178900,0.178800,0.178700,0.178700,0.178600,0.178500,0.178500,0.178400,0.178400,0.178400,0.178400,0.178400,0.178300,0.178100,0.178000,0.177900,0.177800,0.177800,0.177800,0.177900,0.177900,0.177800,0.177800,0.177700,0.177700,0.177600,0.177400,0.177300,0.177100,0.177000,0.176900,0.176900,0.176900,0.176800,0.176800,0.176700,0.176600,0.176500,0.176400,0.176300,0.176300,0.176200,0.176200,0.176200,0.176000,0.175900,0.175700,0.175600,0.175500,0.175500,0.175500,0.175500,0.175500,0.175500,0.175500,0.175400,0.175400,0.175300,0.175100,0.175000,0.174900,0.174800,0.174700,0.174700,0.174700,0.174600,0.174600,0.174400,0.174300,0.174200,0.174000,0.173900,0.173700,0.173600,0.173500,0.173400,0.173400,0.173400,0.173400,0.173400,0.173500,0.173500,0.173400,0.173300,0.173200,0.173100,0.172900,0.172900,0.172900,0.172900,0.172900,0.172700,0.172600,0.172400,0.172300,0.172200,0.172100,0.172100,0.172100,0.172100,0.172100,0.172000,0.171900,0.171800,0.171700,0.171600,0.171500,0.171400,0.171400,0.171300,0.171300,0.171200,0.171100,0.171000,0.170900,0.170800,0.170700,0.170600,0.170500,0.170300,0.170300,0.170300,0.170200,0.170200,0.170100,0.170100,0.170100,0.170100,1.000000,1.000000,1.000000,1.000000,1.000000,1.000000,1.000000,1.000000,1.000000,1.000000,0.482700,1.000000,0.482600,1.000000,1.000000,1.000000,0.484700,1.000000,1.000000,1.000000,1.000000,0.366600,1.000000,1.000000,1.000000,1.000000,1.000000,1.000000,1.000000,1.000000,1.000000,1.000000,0.484100,0.483900,0.483800,0.483700,0.483700,1.000000,1.000000,1.000000,1.000000,1.000000,1.000000,1.000000,1.000000,1.000000,1.000000,1.000000,1.000000,1.000000,1.000000,1.000000,1.000000,1.000000,1.000000,1.000000,1.000000,1.000000,1.000000,1.000000,1.000000,1.000000,1.000000,1.000000,1.000000,1.000000,1.000000,1.000000,1.000000,1.000000,1.000000,0.478300,0.478200,0.478200,0.478100,0.477000,0.475800,0.475500
0.557600,0.557800,0.558300,0.558300,1.000000,0.562000,0.562000,0.561200,0.558600,0.553800,0.552900,1.000000,0.554000,0.554100,0.554100,1.000000,1.000000,1.000000,1.000000,0.552400,0.550600,0.550600,0.550600,1.000000,0.551500,1.000000,1.000000,1.000000,1.000000,0.180000,0.180000,0.179900,0.179700,0.179600,0.179500,0.179400,0.179300,0.179200,0.179200,0.179200,0.179200,0.179300,0.179400,0.179400,0.179400,0.179300,0.179200,0.179100,0.179000,0.178900,0.178800,0.178800,0.178700,0.178600,0.178600,0.178500,0.178500,0.178400,0.178400,0.178400,0.178400,0.178300,0.178300,0.178100,0.178000,0.177900,0.177800,0.177800,0.177900,0.177900,0.177900,0.177800,0.177700,0.177700,0.177600,0.177600,0.177400,0.177300,0.177100,0.177000,0.176900,0.176900,0.176900,0.176800,0.176800,0.176700,0.176700,0.176600,0.176500,0.176400,0.176300,0.176300,0.176200,0.176200,0.176000,0.175900,0.175700,0.175600,0.175500,0.175500,0.175500,0.175500,0.175500,0.175500,0.175400,0.175400,0.175400,0.175300,0.175100,0.175000,0.174900,0.174800,0.174700,0.174700,0.174600,0.174500,0.174500,0.174300,0.174200,0.174100,0.174000,0.173900,0.173700,0.173600,0.173600,0.173400,0.173400,0.173400,0.173400,0.173400,0.173500,0.173500,0.173400,0.173300,0.173200,0.173100,0.172900,0.172900,0.172900,0.172900,0.172900,0.172700,0.172600,0.172400,0.172300,0.172200,0.172100,0.172100,0.172100,0.172100,0.172100,0.172000,0.172000,0.171800,0.171800,0.171600,0.171500,0.171300,0.171300,0.171300,0.171200,0.171200,0.171100,0.171000,0.170800,0.170800,0.170700,0.170600,0.170500,0.170400,0.170300,0.170300,0.170200,0.170200,0.170100,0.170100,0.170000,0.170000,1.000000,1.000000,1.000000,0.488600,0.489600,1.000000,1.000000,1.000000,1.000000,1.000000,1.000000,1.000000,0.482600,1.000000,1.000000,1.000000,0.484700,1.000000,1.000000,1.000000,1.000000,0.366600,1.000000,1.000000,1.000000,1.000000,1.000000,1.000000,1.000000,1.000000,1.000000,1.000000,0.484100,0.483900,0.483800,0.483700,0.483700,1.000000,1.000000,1.000000,1.000000,1.000000,1.000000,1.000000,1.000000,1.000000,1.000000,1.000000,1.000000,1.000000,1.000000,1.000000,1.000000,1.000000,1.000000,1.000000,1.000000,1.000000,1.000000,1.000000,1.000000,1.000000,1.000000,1.000000,1.000000,1.000000,1.000000,1.000000,1.000000,1.000000,1.000000,0.478300,0.478300,0.478200,0.478100,0.478000,0.477000,0.476900
1.000000,1.000000,1.000000,1.000000,1.000000,0.561200,0.560300,0.558500,0.558400,0.552900,1.000000,0.554000,0.554000,0.554100,0.554100,1.000000,1.000000,1.000000,1.000000,1.000000,1.000000,1.000000,1.000000,1.000000,1.000000,1.000000,1.000000,1.000000,1.000000,0.180100,0.180100,0.180000,0.179800,0.179700,0.179700,0.179600,0.179500,0.179300,0.179300,0.179200,0.179200,0.179600,0.179500,0.179500,0.179400,0.179300,0.179200,0.179100,0.179000,0.178900,0.178800,0.178700,0.178700,0.178600,0.178600,0.178500,0.178500,0.178400,0.178300,0.178300,0.178300,0.178300,0.178200,0.178100,0.178100,0.178000,0.178000,0.177900,0.178000,0.177900,0.177900,0.177700,0.177600,0.177600,0.177500,0.177500,0.177400,0.177300,0.177200,0.177100,0.177000,0.176900,0.176900,0.176800,0.176800,0.176700,0.176700,0.176600,0.176600,0.176500,0.176400,0.176300,0.176200,0.176200,0.176000,0.175900,0.175700,0.175600,0.175600,0.175500,0.175500,0.175500,0.175500,0.175400,0.175400,0.175400,0.175400,0.175400,0.175200,0.175100,0.174900,0.174800,0.174700,0.174600,0.174600,0.174500,0.174400,0.174300,0.174200,0.174100,0.174000,0.173900,0.173800,0.173800,0.173700,0.173500,0.173500,0.173400,0.173400,0.173400,0.173500,0.173500,0.173400,0.173300,0.173200,0.173100,0.173000,0.172900,0.172900,0.172900,0.172800,0.172700,0.172600,0.172400,0.172300,0.172200,0.172100,0.172100,0.172100,0.172100,0.172100,0.172100,0.172000,0.171900,0.171800,0.171600,0.171400,0.171200,0.171200,0.171200,0.171100,0.171100,0.171000,0.171000,0.170800,0.170800,0.170700,0.170600,0.170500,0.170400,0.170300,0.170300,0.170300,0.170200,0.170100,0.170100,0.170000,0.170000,0.488400,0.488400,0.488500,0.488600,0.489400,0.489500,1.000000,1.000000,1.000000,1.000000,1.000000,1.000000,1.000000,1.000000,1.000000,1.000000,1.000000,1.000000,1.000000,1.000000,1.000000,0.364500,1.000000,1.000000,1.000000,1.000000,1.000000,1.000000,1.000000,1.000000,1.000000,0.484400,0.484400,0.483900,0.483800,0.485000,0.485000,1.000000,1.000000,1.000000,1.000000,1.000000,1.000000,1.000000,1.000000,1.000000,1.000000,1.000000,1.000000,1.000000,1.000000,1.000000,1.000000,0.482700,1.000000,1.000000,1.000000,1.000000,1.000000,1.000000,1.000000,1.000000,1.000000,1.000000,1.000000,1.000000,0.481200,1.000000,1.000000,1.000000,0.478400,0.478400,0.478300,0.478200,0.478100,0.478100,0.477000,0.477000
1.000000,1.000000,1.000000,0.557200,0.558600,0.558500,0.558400,0.555400,1.000000,1.000000,1.000000,0.553000,0.554000,0.554000,0.554100,0.555300,0.555300,0.554500,1.000000,0.552400,1.000000,1.000000,1.000000,1.000000,1.000000,1.000000,1.000000,1.000000,1.000000,0.180200,0.180200,0.180000,0.179800,0.179800,0.179700,0.179700,0.179600,0.179500,0.179300,0.179300,0.179300,0.179800,0.179600,0.179500,0.179500,0.179300,0.179300,0.179100,0.179000,0.178900,0.178800,0.178700,0.178600,0.178600,0.178600,0.178500,0.178500,0.178400,0.178200,0.178200,0.178300,0.178300,0.178200,0.178200,0.178100,0.178000,0.178000,0.178000,0.178000,0.177900,0.177800,0.177600,0.177500,0.177500,0.177500,0.177500,0.177400,0.177400,0.177200,0.177100,0.177000,0.176900,0.176900,0.176800,0.176800,0.176800,0.176700,0.176700,0.176700,0.176600,0.176600,0.176500,0.176300,0.176200,0.176000,0.175900,0.175700,0.175700,0.175600,0.175600,0.175600,0.175600,0.175500,0.175400,0.175400,0.175300,0.175300,0.175300,0.175300,0.175200,0.175000,0.174800,0.174600,0.174600,0.174500,0.174400,0.174400,0.174300,0.174200,0.174100,0.174000,0.174000,0.173900,0.173800,0.173800,0.173600,0.173500,0.173400,0.173400,0.173500,0.173500,0.173500,0.173400,0.173300,0.173200,0.173100,0.173000,0.173000,0.172900,0.172800,0.172800,0.172600,0.172600,0.172400,0.172300,0.172200,0.172100,0.172100,0.172100,0.172100,0.172100,0.172100,0.172000,0.171900,0.171800,0.171700,0.171400,0.171200,0.171200,0.171100,0.171100,0.171100,0.171000,0.170900,0.170800,0.170800,0.170700,0.170500,0.170500,0.170400,0.170400,0.170400,0.170300,0.170200,0.170100,0.170000,0.170000,0.170000,0.488200,0.488400,0.488400,0.488600,0.488800,0.489400,0.488400,1.000000,1.000000,1.000000,1.000000,1.000000,1.000000,1.000000,1.000000,1.000000,1.000000,1.000000,1.000000,0.366500,0.364600,0.366400,0.364600,1.000000,1.000000,1.000000,1.000000,1.000000,1.000000,1.000000,1.000000,1.000000,0.484700,0.484700,0.484900,0.485000,0.485000,0.485000,0.484300,0.484200,1.000000,1.000000,1.000000,0.485100,1.000000,0.483900,1.000000,1.000000,0.483100,0.483000,1.000000,1.000000,1.000000,1.000000,0.479700,0.479000,1.000000,1.000000,1.000000,0.480800,0.482000,0.483700,0.482400,0.481500,0.481300,1.000000,1.000000,0.479500,0.479500,1.000000,0.478600,0.478500,0.478300,0.478200,0.478200,0.477100,1.000000,0.477000
0.557600,1.000000,0.557200,0.557200,0.557200,0.555200,0.555200,1.000000,1.000000,1.000000,0.551700,0.553000,0.553300,0.554000,0.554000,0.555300,0.555400,1.000000,0.555300,0.553200,0.553200,0.553200,0.553200,1.000000,1.000000,1.000000,1.000000,1.000000,1.000000,0.180200,0.180200,0.180000,0.179900,0.179800,0.179800,0.179800,0.179800,0.179800,0.179800,0.179900,0.179900,0.179800,0.179700,0.179600,0.179500,0.179400,0.179300,0.179100,0.179000,0.179000,0.178800,0.178700,0.178700,0.178700,0.178600,0.178600,0.178500,0.178400,0.178300,0.178200,0.178300,0.178300,0.178200,0.178200,0.178100,0.178100,0.178000,0.178000,0.177800,0.177500,0.177400,0.177400,0.177500,0.177500,0.177500,0.177500,0.177400,0.177400,0.177200,0.177100,0.177000,0.176900,0.176900,0.176800,0.176800,0.176800,0.176800,0.176800,0.176800,0.176700,0.176600,0.176500,0.176300,0.176200,0.176000,0.175900,0.175800,0.175700,0.175700,0.175700,0.175700,0.175700,0.175600,0.175500,0.175400,0.175300,0.175300,0.175300,0.175300,0.175200,0.175100,0.175000,0.174700,0.174600,0.174500,0.174400,0.174400,0.174300,0.174200,0.174200,0.174100,0.174000,0.174000,0.173900,0.173900,0.173700,0.173600,0.173500,0.173500,0.173500,0.173500,0.173500,0.173400,0.173300,0.173200,0.173200,0.173000,0.172900,0.172800,0.172700,0.172600,0.172600,0.172500,0.172400,0.172300,0.172200,0.172100,0.172100,0.172100,0.172100,0.172000,0.172000,0.172000,0.171900,0.171800,0.171700,0.171400,0.171300,0.171200,0.171100,0.171100,0.171000,0.170900,0.170800,0.170700,0.170600,0.170600,0.170500,0.170400,0.170400,0.170400,0.170400,0.170300,0.170200,0.170100,0.170000,0.170000,1.000000,1.000000,0.487000,0.487300,0.488100,0.488500,0.487400,1.000000,1.000000,1.000000,0.376900,0.376900,0.376900,1.000000,1.000000,1.000000,1.000000,1.000000,1.000000,1.000000,1.000000,0.366500,1.000000,1.000000,1.000000,1.000000,0.366700,1.000000,1.000000,1.000000,1.000000,1.000000,1.000000,0.484800,0.484800,0.484900,0.485000,0.485000,0.484600,0.484200,0.483200,1.000000,1.000000,0.483100,0.483600,0.483800,0.483800,1.000000,0.483600,0.483300,0.483000,0.482900,0.482800,1.000000,0.482500,0.479400,1.000000,0.479000,0.480800,0.480800,0.480800,0.480800,0.480800,0.480800,0.481000,0.480900,0.480800,0.479300,0.479300,0.479200,0.478800,0.478600,0.478500,0.478400,0.478300,0.478100,0.477000,0.476800,0.476800
0.557600,0.557200,0.557100,0.557000,0.555000,0.555000,0.555100,0.555100,1.000000,0.551600,1.000000,1.000000,0.553400,0.554000,0.554000,0.554100,0.554100,1.000000,0.555000,0.553600,0.553200,0.553200,0.553200,0.553200,1.000000,1.000000,1.000000,1.000000,1.000000,0.180100,0.180100,0.180000,0.179900,0.179800,0.179800,0.179800,0.179800,0.179900,0.179900,0.179900,0.179800,0.179800,0.179600,0.179600,0.179500,0.179300,0.179300,0.179100,0.179000,0.179000,0.178800,0.178800,0.178700,0.178700,0.178700,0.178600,0.178600,0.178400,0.178300,0.178300,0.178300,0.178300,0.178200,0.178200,0.178100,0.178000,0.177900,0.177800,0.177600,0.177500,0.177400,0.177400,0.177500,0.177500,0.177600,0.177600,0.177600,0.177500,0.177300,0.177200,0.177000,0.176900,0.176900,0.176900,0.176800,0.176800,0.176800,0.176800,0.176800,0.176700,0.176600,0.176500,0.176300,0.176200,0.176000,0.175900,0.175800,0.175800,0.175800,0.175800,0.175800,0.175700,0.175600,0.175600,0.175400,0.175300,0.175200,0.175200,0.175200,0.175200,0.175100,0.175000,0.174700,0.174600,0.174500,0.174400,0.174400,0.174300,0.174300,0.174200,0.174100,0.174100,0.174000,0.174000,0.173900,0.173700,0.173600,0.173600,0.173600,0.173500,0.173500,0.173400,0.173300,0.173300,0.173200,0.173100,0.173000,0.172900,0.172700,0.172600,0.172600,0.172500,0.172500,0.172400,0.172300,0.172200,0.172100,0.172100,0.172000,0.172000,0.172000,0.172000,0.171900,0.171900,0.171800,0.171700,0.171400,0.171300,0.171200,0.171100,0.171000,0.171000,0.170800,0.170800,0.170600,0.170600,0.170500,0.170400,0.170400,0.170300,0.170300,0.170300,0.170200,0.170200,0.170100,0.170000,0.170000,0.170000,1.000000,0.486800,0.487200,0.487300,0.487500,0.486700,0.486200,1.000000,1.000000,0.376900,0.376900,0.376900,0.376900,1.000000,1.000000,1.000000,1.000000,1.000000,1.000000,0.369300,0.369300,1.000000,1.000000,1.000000,0.362700,0.362700,0.366800,1.000000,1.000000,1.000000,1.000000,1.000000,1.000000,0.483800,0.483800,0.483300,0.483200,0.483100,0.483100,0.483100,0.484100,0.483500,0.483600,0.483700,0.483700,0.483800,0.483700,0.483600,0.483400,0.483100,0.483000,0.482800,0.482700,0.481900,0.479100,0.479000,0.479000,0.479000,0.480800,0.480800,0.480700,0.480700,0.480700,0.479200,0.479300,0.479400,0.479300,0.479200,0.479000,0.478700,0.478600,0.478500,0.478400,0.477600,0.477400,0.476200,0.476200,0.476100
0.557900,0.557100,0.557100,0.555000,0.555000,0.555000,0.555000,0.555100,1.000000,1.000000,1.000000,0.553200,0.553900,0.554000,0.554000,0.554100,0.554100,1.000000,0.554900,0.554800,0.553300,0.553200,0.553200,0.553200,0.553200,1.000000,1.000000,1.000000,1.000000,0.180100,0.180100,0.180000,0.179900,0.179800,0.179800,0.179800,0.179800,0.179800,0.179900,0.179800,0.179700,0.179700,0.179600,0.179500,0.179500,0.179300,0.179200,0.179100,0.179000,0.179000,0.178900,0.178800,0.178800,0.178800,0.178800,0.178700,0.178700,0.178500,0.178400,0.178300,0.178300,0.178300,0.178200,0.178100,0.178000,0.178000,0.177800,0.177700,0.177500,0.177500,0.177400,0.177400,0.177500,0.177600,0.177700,0.177700,0.177600,0.177500,0.177300,0.177200,0.177000,0.176900,0.176900,0.176900,0.176900,0.176800,0.176800,0.176800,0.176800,0.176700,0.176600,0.176500,0.176300,0.176200,0.176000,0.175900,0.175800,0.175800,0.175800,0.175800,0.175800,0.175700,0.175700,0.175600,0.175400,0.175300,0.175200,0.175100,0.175100,0.175100,0.175100,0.175000,0.174800,0.174600,0.174600,0.174400,0.174400,0.174300,0.174300,0.174200,0.174200,0.174100,0.174000,0.174000,0.173900,0.173700,0.173600,0.173600,0.173600,0.173500,0.173400,0.173400,0.173300,0.173200,0.173200,0.173100,0.172900,0.172800,0.172700,0.172600,0.172600,0.172500,0.172400,0.172400,0.172300,0.172200,0.172200,0.172100,0.172000,0.172000,0.171900,0.171900,0.171900,0.171800,0.171700,0.171600,0.171400,0.171300,0.171200,0.171100,0.171000,0.171000,0.170800,0.170700,0.170600,0.170500,0.170500,0.170400,0.170300,0.170300,0.170300,0.170300,0.170200,0.170100,0.170000,0.170000,0.170000,0.170000,0.486600,0.486600,0.486700,0.487100,0.487100,0.486600,0.486200,0.484700,1.000000,1.000000,0.376900,0.376900,1.000000,1.000000,1.000000,1.000000,1.000000,1.000000,1.000000,0.369300,0.369400,1.000000,1.000000,1.000000,0.357400,0.357400,0.366800,1.000000,1.000000,1.000000,1.000000,1.000000,1.000000,0.482500,0.482400,0.482100,0.482100,0.483100,0.483100,0.483100,0.484000,0.483900,0.483800,0.483700,0.483700,0.483700,0.483700,0.483600,0.483500,0.483200,0.483000,0.482800,0.482200,0.481800,0.479200,0.479100,0.479100,0.480800,0.480800,0.480700,0.480700,0.480600,0.479200,0.479000,0.478100,0.479400,0.479200,0.479000,0.478800,0.478600,0.478600,0.478500,0.477400,0.477300,0.476000,0.476000,0.476100,0.476000
0.558000,1.000000,1.000000,0.555000,0.554900,0.555000,0.555000,0.556100,1.000000,1.000000,1.000000,0.556200,0.556200,0.555000,0.554100,0.554100,0.554100,0.554600,1.000000,0.554900,0.554900,0.553300,0.553300,0.553200,0.553200,1.000000,1.000000,1.000000,1.000000,0.180100,0.180100,0.180000,0.180000,0.179800,0.179800,0.179700,0.179700,0.179700,0.179800,0.179700,0.179600,0.179600,0.179500,0.179500,0.179400,0.179200,0.179200,0.179000,0.179000,0.179000,0.179000,0.179000,0.178900,0.178900,0.178900,0.178800,0.178800,0.178700,0.178600,0.178400,0.178400,0.178200,0.178200,0.178000,0.178000,0.177900,0.177800,0.177700,0.177500,0.177500,0.177500,0.177500,0.177500,0.177600,0.177700,0.177700,0.177600,0.177600,0.177300,0.177100,0.176900,0.176900,0.176900,0.176900,0.176900,0.176800,0.176800,0.176700,0.176700,0.176600,0.176500,0.176400,0.176200,0.176200,0.176000,0.175900,0.175800,0.175800,0.175800,0.175800,0.175800,0.175700,0.175700,0.175600,0.175400,0.175300,0.175100,0.175000,0.175000,0.175000,0.175000,0.175000,0.174900,0.174800,0.174700,0.174600,0.174500,0.174400,0.174300,0.174300,0.174200,0.174200,0.174100,0.174000,0.173900,0.173700,0.173600,0.173600,0.173600,0.173500,0.173400,0.173300,0.173200,0.173100,0.173100,0.173000,0.172800,0.172800,0.172600,0.172600,0.172600,0.172500,0.172400,0.172400,0.172300,0.172300,0.172200,0.172100,0.172000,0.171900,0.171800,0.171800,0.171800,0.171700,0.171600,0.171500,0.171400,0.171300,0.171200,0.171100,0.171000,0.170900,0.170800,0.170700,0.170600,0.170500,0.170500,0.170400,0.170300,0.170300,0.170300,0.170200,0.170100,0.170100,0.170000,0.170000,0.170000,1.000000,0.486500,0.486500,0.486500,0.486400,0.486500,0.486400,0.486000,0.482300,0.480000,1.000000,1.000000,1.000000,1.000000,1.000000,0.378300,1.000000,1.000000,1.000000,1.000000,0.369400,0.369400,1.000000,1.000000,1.000000,1.000000,1.000000,1.000000,0.363900,0.363500,1.000000,1.000000,1.000000,1.000000,0.482400,0.482300,0.482100,0.482100,0.482000,0.483000,0.483100,0.483200,0.483900,0.483800,0.483700,0.483700,0.482600,0.482600,0.483600,0.483400,0.483200,0.483100,0.482900,0.481800,0.481800,0.480700,0.480700,0.480800,0.480800,0.480800,0.480600,0.480600,0.480400,0.479200,0.478200,0.478100,0.478100,0.478000,0.478000,0.477900,0.477700,0.477600,0.477200,0.475600,0.475100,0.475500,0.476000,0.476100,0.475900
1.000000,1.000000,1.000000,1.000000,1.000000,0.554900,0.555900,1.000000,1.000000,1.000000,0.556300,0.556200,0.556100,0.556000,0.555000,0.554900,0.554900,0.554900,0.555300,1.000000,1.000000,0.553200,0.553200,0.552700,1.000000,1.000000,1.000000,1.000000,1.000000,0.180100,0.180100,0.180000,0.180000,0.179800,0.179800,0.179600,0.179500,0.179400,0.179300,0.179300,0.179300,0.179400,0.179400,0.179400,0.179300,0.179200,0.179100,0.179000,0.179000,0.179000,0.179000,0.179000,0.179000,0.179000,0.178900,0.178900,0.178800,0.178700,0.178600,0.178500,0.178400,0.178200,0.178100,0.178000,0.178000,0.177900,0.177800,0.177700,0.177600,0.177500,0.177500,0.177500,0.177600,0.177600,0.177700,0.177700,0.177600,0.177500,0.177200,0.177000,0.176900,0.176900,0.176900,0.176900,0.176900,0.176800,0.176800,0.176700,0.176600,0.176500,0.176500,0.176400,0.176200,0.176200,0.176000,0.175900,0.175800,0.175800,0.175800,0.175700,0.175700,0.175700,0.175600,0.175600,0.175300,0.175200,0.175000,0.174900,0.174800,0.174800,0.174800,0.174800,0.174900,0.174800,0.174700,0.174600,0.174500,0.174400,0.174300,0.174200,0.174200,0.174200,0.174100,0.174000,0.173900,0.173700,0.173600,0.173500,0.173500,0.173500,0.173400,0.173300,0.173200,0.173100,0.173100,0.172900,0.172900,0.172800,0.172700,0.172600,0.172600,0.172500,0.172500,0.172400,0.172400,0.172300,0.172200,0.172100,0.171900,0.171900,0.171800,0.171700,0.171700,0.171600,0.171600,0.171500,0.171300,0.171300,0.171200,0.171100,0.171000,0.170900,0.170800,0.170700,0.170600,0.170500,0.170500,0.170400,0.170300,0.170300,0.170200,0.170200,0.170100,0.170000,0.169900,0.169900,0.169900,1.000000,0.486500,0.486500,0.486400,0.486300,0.486300,0.486000,0.484800,0.482400,0.479900,1.000000,1.000000,1.000000,0.379200,0.379100,0.379100,1.000000,1.000000,1.000000,1.000000,1.000000,1.000000,0.364900,1.000000,1.000000,1.000000,1.000000,1.000000,1.000000,1.000000,0.363200,1.000000,1.000000,1.000000,0.482400,0.482300,0.482100,0.482100,0.482000,0.481900,0.481900,0.482900,0.483300,0.483800,0.483700,0.483700,0.482500,0.482500,0.482400,0.482500,0.483200,0.483000,0.481700,0.480900,0.480700,0.480700,0.480800,0.480800,0.480800,0.480800,0.480600,0.480500,0.480300,0.480300,0.480200,0.478100,0.478100,0.478000,0.478000,0.477900,0.475700,0.475700,0.475600,0.475600,0.475000,0.475100,0.476000,0.476100,0.476100
1.000000,1.000000,1.000000,1.000000,1.000000,0.555900,0.555900,1.000000,1.000000,1.000000,0.556300,0.556200,0.556100,0.555800,0.554900,0.555000,0.555000,1.000000,1.000000,1.000000,1.000000,0.553200,1.000000,0.552200,1.000000,1.000000,1.000000,1.000000,1.000000,0.180100,0.180100,0.180000,0.179900,0.179800,0.179700,0.179500,0.179500,0.179300,0.179300,0.179300,0.179300,0.179300,0.179400,0.179300,0.179300,0.179100,0.179100,0.179000,0.179000,0.179000,0.179100,0.179000,0.179000,0.179000,0.178900,0.178900,0.178800,0.178600,0.178500,0.178500,0.178300,0.178100,0.178000,0.178000,0.177900,0.177900,0.177800,0.177700,0.177600,0.177600,0.177500,0.177500,0.177500,0.177500,0.177500,0.177500,0.177300,0.177200,0.176900,0.176800,0.176800,0.176800,0.176800,0.176800,0.176800,0.176700,0.176700,0.176600,0.176500,0.176500,0.176400,0.176300,0.176200,0.176100,0.176000,0.175900,0.175800,0.175800,0.175800,0.175700,0.175700,0.175600,0.175600,0.175500,0.175200,0.175100,0.174900,0.174800,0.174800,0.174700,0.174700,0.174800,0.174800,0.174800,0.174800,0.174600,0.174600,0.174400,0.174300,0.174200,0.174200,0.174100,0.174100,0.174000,0.173900,0.173700,0.173600,0.173500,0.173400,0.173400,0.173400,0.173300,0.173200,0.173200,0.173100,0.172900,0.172900,0.172800,0.172700,0.172600,0.172600,0.172600,0.172500,0.172400,0.172400,0.172300,0.172200,0.172100,0.171900,0.171800,0.171700,0.171700,0.171600,0.171600,0.171500,0.171400,0.171300,0.171300,0.171200,0.171100,0.171000,0.171000,0.170800,0.170800,0.170600,0.170600,0.170500,0.170400,0.170400,0.170300,0.170300,0.170200,0.170100,0.170000,0.169900,0.169900,0.169800,1.000000,0.486500,0.486400,0.486400,0.484600,0.484500,0.484600,0.484400,0.482400,0.479700,1.000000,1.000000,1.000000,0.379200,0.379200,1.000000,1.000000,1.000000,1.000000,1.000000,0.364900,0.364900,1.000000,1.000000,1.000000,1.000000,1.000000,1.000000,1.000000,1.000000,0.359700,1.000000,1.000000,1.000000,1.000000,1.000000,0.482200,0.482100,0.482000,0.481900,0.481900,0.482800,0.482800,0.483700,0.483700,0.482600,0.482500,0.482400,0.482400,0.482100,0.480700,0.480600,0.480600,0.480600,0.480600,0.480700,0.480800,0.480800,0.480900,0.480800,0.480400,0.480300,0.480200,0.480100,0.480100,0.478100,0.478100,0.478000,0.477900,0.476500,0.475700,0.475700,0.475600,0.475600,0.475700,0.475700,0.476100,0.476200,0.476300
1.000000,1.000000,0.557000,0.556400,0.556000,0.555800,0.555700,1.000000,0.555500,0.555100,0.553600,0.553100,0.553000,1.000000,1.000000,1.000000,1.000000,0.555600,0.555500,0.554500,0.554500,0.551300,0.551200,0.551200,0.551100,1.000000,1.000000,1.000000,1.000000,0.180200,0.180100,0.180000,0.179900,0.179800,0.179700,0.179400,0.179300,0.179200,0.179200,0.179200,0.179200,0.179200,0.179300,0.179200,0.179200,0.179100,0.179000,0.179000,0.179000,0.179000,0.179000,0.179000,0.178900,0.178900,0.178800,0.178800,0.178700,0.178600,0.178500,0.178400,0.178200,0.178100,0.178000,0.178000,0.177900,0.177900,0.177800,0.177700,0.177600,0.177500,0.177500,0.177500,0.177500,0.177400,0.177400,0.177300,0.177200,0.177100,0.176900,0.176800,0.176700,0.176700,0.176800,0.176800,0.176800,0.176700,0.176600,0.176600,0.176500,0.176400,0.176400,0.176300,0.176100,0.176100,0.175900,0.175900,0.175800,0.175800,0.175700,0.175600,0.175600,0.175400,0.175400,0.175300,0.175100,0.175000,0.174900,0.174800,0.174700,0.174600,0.174600,0.174600,0.174700,0.174700,0.174700,0.174600,0.174500,0.174300,0.174300,0.174200,0.174100,0.174100,0.174000,0.174000,0.173900,0.173600,0.173600,0.173400,0.173400,0.173400,0.173300,0.173300,0.173300,0.173300,0.173200,0.173000,0.172900,0.172800,0.172700,0.172600,0.172600,0.172600,0.172600,0.172500,0.172400,0.172400,0.172200,0.172100,0.171900,0.171800,0.171700,0.171700,0.171600,0.171600,0.171500,0.171500,0.171300,0.171300,0.171200,0.171200,0.171100,0.171000,0.171000,0.170800,0.170600,0.170600,0.170600,0.170500,0.170500,0.170400,0.170300,0.170300,0.170100,0.170000,0.169900,0.169900,0.169800,1.000000,0.486500,0.486400,0.485000,0.484000,0.484100,0.484400,0.484400,0.482900,1.000000,1.000000,1.000000,1.000000,1.000000,1.000000,1.000000,1.000000,1.000000,1.000000,1.000000,1.000000,1.000000,1.000000,1.000000,1.000000,1.000000,0.362200,0.361900,0.359700,0.359700,0.359700,1.000000,1.000000,1.000000,1.000000,0.482400,0.482300,0.482100,0.482000,0.481800,0.481800,0.481800,0.481900,0.482400,0.482500,0.482600,0.482500,0.482300,0.482200,0.480500,0.480500,0.480500,0.480500,0.480500,0.480600,0.480600,0.480800,0.480800,0.480800,0.480800,0.480300,0.480200,0.480100,0.480100,0.480100,0.478900,0.478800,0.478100,0.478000,0.476300,0.475800,0.475700,0.475700,0.477100,0.477100,0.476000,0.476300,0.476400,0.477400
1.000000,1.000000,1.000000,0.553600,0.553700,0.554000,0.555200,0.555400,0.555100,1.000000,0.553200,0.553100,0.553000,1.000000,1.000000,1.000000,1.000000,1.000000,0.554400,0.554400,0.554400,0.551300,0.551100,0.551000,0.551100,1.000000,1.000000,1.000000,1.000000,0.180200,0.180100,0.180000,0.179900,0.179800,0.179600,0.179400,0.179300,0.179200,0.179200,0.179200,0.179200,0.179200,0.179200,0.179200,0.179200,0.179100,0.179000,0.179000,0.179000,0.178900,0.178900,0.178800,0.178800,0.178800,0.178800,0.178700,0.178600,0.178400,0.178400,0.178300,0.178200,0.178100,0.178000,0.178000,0.177900,0.177900,0.177700,0.177600,0.177500,0.177400,0.177400,0.177300,0.177300,0.177200,0.177200,0.177200,0.177100,0.177100,0.176900,0.176800,0.176700,0.176700,0.176700,0.176700,0.176700,0.176600,0.176600,0.176500,0.176500,0.176400,0.176400,0.176300,0.176100,0.176000,0.175900,0.175900,0.175800,0.175800,0.175800,0.175600,0.175500,0.175400,0.175300,0.175200,0.175100,0.175000,0.174900,0.174800,0.174700,0.174600,0.174500,0.174600,0.174700,0.174700,0.174700,0.174600,0.174500,0.174300,0.174200,0.174200,0.174100,0.174100,0.174000,0.174000,0.173900,0.173600,0.173500,0.173300,0.173300,0.173300,0.173300,0.173300,0.173300,0.173300,0.173300,0.173100,0.173000,0.172800,0.172700,0.172600,0.172600,0.172600,0.172600,0.172500,0.172400,0.172400,0.172200,0.172100,0.171900,0.171800,0.171800,0.171700,0.171700,0.171600,0.171600,0.171500,0.171400,0.171300,0.171300,0.171200,0.171100,0.171100,0.171000,0.170800,0.170800,0.170700,0.170600,0.170600,0.170600,0.170500,0.170400,0.170300,0.170200,0.170100,0.169900,0.169900,0.169900,1.000000,0.486400,0.485800,0.484000,0.484000,0.484100,0.484400,0.484400,0.484300,0.483000,1.000000,1.000000,1.000000,1.000000,1.000000,1.000000,1.000000,1.000000,1.000000,1.000000,1.000000,1.000000,1.000000,1.000000,1.000000,1.000000,0.362400,0.362400,0.359700,0.359700,0.359700,1.000000,1.000000,1.000000,1.000000,0.484200,0.485800,0.485800,0.484100,0.481900,0.481800,0.481800,0.481800,0.482300,0.482500,0.482600,0.482600,0.482600,0.482000,0.480300,0.480300,0.480300,0.480400,0.480400,0.480400,0.480500,0.480600,0.480700,0.480700,0.480700,0.480000,0.480000,0.480000,0.480000,0.480000,0.478800,0.478700,0.478400,0.478300,0.477800,0.475800,0.475800,0.475800,0.477100,0.477100,0.476800,0.476400,0.476400,0.476500
1.000000,1.000000,1.000000,0.553300,0.553500,0.553500,0.554500,0.555000,0.555000,1.000000,0.553400,0.553100,0.553000,1.000000,1.000000,1.000000,1.000000,0.554300,0.554400,0.554300,0.554000,0.551500,0.551200,0.551000,0.551100,1.000000,1.000000,1.000000,0.180300,0.180200,0.180100,0.180000,0.179900,0.179800,0.179600,0.179300,0.179300,0.179200,0.179200,0.179200,0.179200,0.179200,0.179200,0.179200,0.179100,0.179000,0.179000,0.178900,0.178900,0.178800,0.178700,0.178700,0.178700,0.178700,0.178700,0.178700,0.178600,0.178400,0.178300,0.178300,0.178200,0.178100,0.178000,0.178000,0.177900,0.177800,0.177700,0.177600,0.177400,0.177400,0.177300,0.177200,0.177200,0.177200,0.177200,0.177200,0.177100,0.177100,0.176900,0.176800,0.176700,0.176700,0.176700,0.176600,0.176600,0.176500,0.176500,0.176500,0.176500,0.176500,0.176400,0.176200,0.176100,0.176000,0.175900,0.175900,0.175800,0.175800,0.175800,0.175600,0.175500,0.175300,0.175300,0.175200,0.175100,0.175000,0.174900,0.174800,0.174700,0.174600,0.174500,0.174600,0.174600,0.174700,0.174700,0.174600,0.174500,0.174300,0.174200,0.174200,0.174100,0.174100,0.174000,0.173900,0.173800,0.173600,0.173400,0.173300,0.173300,0.173200,0.173200,0.173300,0.173300,0.173300,0.173300,0.173100,0.173000,0.172700,0.172600,0.172600,0.172600,0.172600,0.172600,0.172600,0.172500,0.172400,0.172200,0.172100,0.171900,0.171800,0.171800,0.171800,0.171800,0.171700,0.171600,0.171600,0.171500,0.171400,0.171300,0.171300,0.171100,0.171100,0.171000,0.170900,0.170800,0.170700,0.170700,0.170700,0.170600,0.170600,0.170500,0.170400,0.170200,0.170100,0.169900,0.169900,0.169900,1.000000,1.000000,0.485800,0.484000,0.484000,0.484000,0.484400,0.484400,0.484400,0.484200,0.484300,1.000000,1.000000,1.000000,1.000000,1.000000,1.000000,1.000000,1.000000,1.000000,1.000000,1.000000,1.000000,1.000000,1.000000,1.000000,0.362600,0.362500,0.361800,0.359700,0.359700,1.000000,1.000000,1.000000,1.000000,1.000000,0.485800,0.485800,0.485800,0.484100,0.481700,0.481700,0.481700,0.481900,0.482400,0.482600,0.482700,0.482600,0.481800,0.480200,0.480300,0.480300,0.480300,0.480300,0.480300,0.480400,0.480500,0.480700,0.480700,0.480700,0.479800,0.479800,0.479800,0.479800,0.479900,0.478700,0.478500,0.478300,0.478300,0.478200,0.476000,0.475900,0.475900,0.477100,0.477100,0.477100,0.477000,0.476600,0.476600
1.000000,1.000000,1.000000,0.553200,0.553300,0.553600,0.554500,0.554800,0.554800,1.000000,1.000000,0.553300,1.000000,0.552800,1.000000,0.551400,0.551300,0.551200,0.553100,1.000000,1.000000,1.000000,0.551400,0.551400,1.000000,1.000000,1.000000,1.000000,0.180300,0.180100,0.180100,0.180000,0.179900,0.179800,0.179600,0.179300,0.179200,0.179200,0.179200,0.179200,0.179200,0.179200,0.179200,0.179100,0.179100,0.179000,0.178900,0.178800,0.178700,0.178600,0.178500,0.178500,0.178500,0.178600,0.178700,0.178700,0.178700,0.178400,0.178300,0.178200,0.178200,0.178200,0.178100,0.178000,0.177900,0.177800,0.177600,0.177500,0.177400,0.177300,0.177200,0.177200,0.177200,0.177100,0.177200,0.177200,0.177200,0.177200,0.177000,0.176900,0.176800,0.176700,0.176700,0.176600,0.176500,0.176400,0.176400,0.176500,0.176500,0.176500,0.176400,0.176200,0.176000,0.176000,0.175900,0.175900,0.175900,0.175800,0.175800,0.175600,0.175500,0.175300,0.175200,0.175200,0.175100,0.175100,0.174900,0.174800,0.174700,0.174600,0.174600,0.174600,0.174600,0.174700,0.174700,0.174600,0.174500,0.174300,0.174300,0.174200,0.174100,0.174100,0.174000,0.173900,0.173800,0.173600,0.173400,0.173300,0.173200,0.173200,0.173200,0.173300,0.173300,0.173300,0.173200,0.173000,0.172900,0.172700,0.172600,0.172600,0.172600,0.172600,0.172600,0.172500,0.172500,0.172400,0.172200,0.172100,0.172000,0.172000,0.172000,0.171900,0.171900,0.171800,0.171800,0.171800,0.171600,0.171600,0.171400,0.171300,0.171100,0.171100,0.171000,0.170900,0.170800,0.170800,0.170800,0.170700,0.170700,0.170600,0.170500,0.170400,0.170100,0.170100,0.170000,0.169900,0.169900,1.000000,1.000000,0.485800,0.485400,0.484000,0.484000,0.484700,0.484500,0.484400,0.484300,0.484300,1.000000,1.000000,1.000000,1.000000,1.000000,1.000000,1.000000,1.000000,1.000000,1.000000,1.000000,1.000000,1.000000,1.000000,1.000000,1.000000,1.000000,0.362200,0.359800,1.000000,1.000000,1.000000,0.355800,1.000000,1.000000,1.000000,1.000000,1.000000,0.485900,1.000000,1.000000,0.481700,0.481800,1.000000,0.482700,1.000000,1.000000,0.480100,0.480100,0.480200,0.480200,0.480200,0.480200,0.480200,0.480300,0.480400,0.480600,0.480700,0.480700,0.479600,0.479600,0.479700,0.479800,0.479800,0.478400,0.478400,0.478200,0.478200,0.478200,0.476300,0.476300,0.476400,0.477000,0.477000,0.477000,0.477000,0.476700,0.476700
1.000000,1.000000,1.000000,0.553900,1.000000,0.554400,0.554600,0.554700,0.554700,1.000000,1.000000,1.000000,0.553400,0.552500,1.000000,0.551400,0.551300,0.551300,1.000000,1.000000,0.550300,0.551500,0.551400,0.551400,1.000000,1.000000,1.000000,1.000000,1.000000,0.180100,0.180100,0.180000,0.180000,0.180000,0.179600,0.179300,0.179300,0.179300,0.179300,0.179300,0.179300,0.179200,0.179100,0.179100,0.179000,0.179000,0.178900,0.178800,0.178700,0.178600,0.178500,0.178400,0.178400,0.178500,0.178600,0.178700,0.178700,0.178400,0.178300,0.178300,0.178200,0.178200,0.178200,0.178000,0.177900,0.177800,0.177600,0.177500,0.177300,0.177200,0.177100,0.177000,0.177000,0.177100,0.177200,0.177200,0.177200,0.177200,0.177100,0.177000,0.176800,0.176800,0.176700,0.176500,0.176400,0.176400,0.176400,0.176500,0.176600,0.176500,0.176300,0.176200,0.176000,0.176000,0.175900,0.175900,0.175900,0.175900,0.175800,0.175700,0.175600,0.175300,0.175200,0.175200,0.175100,0.175100,0.175000,0.174900,0.174800,0.174700,0.174700,0.174600,0.174700,0.174700,0.174700,0.174600,0.174500,0.174300,0.174300,0.174200,0.174100,0.174100,0.174000,0.173900,0.173800,0.173600,0.173400,0.173300,0.173200,0.173200,0.173200,0.173200,0.173200,0.173100,0.173100,0.172900,0.172800,0.172600,0.172600,0.172600,0.172500,0.172600,0.172600,0.172500,0.172400,0.172400,0.172200,0.172200,0.172100,0.172000,0.172000,0.172000,0.172000,0.171900,0.171900,0.171800,0.171700,0.171600,0.171400,0.171300,0.171100,0.171000,0.171000,0.170900,0.170800,0.170800,0.170800,0.170800,0.170800,0.170600,0.170500,0.170400,0.170100,0.170000,0.170000,0.170000,0.170000,1.000000,1.000000,0.485400,0.485300,0.485000,0.484900,0.484700,0.484500,0.484400,0.482900,0.482900,0.482900,1.000000,1.000000,1.000000,1.000000,1.000000,1.000000,1.000000,1.000000,1.000000,1.000000,1.000000,1.000000,1.000000,1.000000,1.000000,1.000000,0.362600,0.359800,1.000000,1.000000,1.000000,0.356800,0.355800,1.000000,1.000000,1.000000,1.000000,1.000000,1.000000,1.000000,1.000000,1.000000,1.000000,0.482700,0.480000,0.479900,0.479900,0.480000,0.480100,0.480100,0.480000,0.480000,0.480000,0.480100,0.480200,0.480200,0.480100,0.479200,0.479200,0.479200,0.479000,0.478700,0.478500,0.478200,0.478200,0.478100,0.478100,0.476600,0.476400,0.476300,0.476100,0.476800,0.476900,0.476900,0.476900,0.476600,0.476600
1.000000,1.000000,1.000000,1.000000,0.554100,0.554400,0.554500,0.554600,0.554600,1.000000,0.553400,0.553400,0.553500,0.553600,0.553700,0.554200,0.551300,0.551300,0.550300,0.550200,0.550200,1.000000,0.551500,1.000000,0.551500,1.000000,1.000000,1.000000,1.000000,0.180100,0.180100,0.180100,0.180100,0.180100,0.179900,0.179400,0.179300,0.179300,0.179300,0.179400,0.179300,0.179300,0.179000,0.179000,0.179000,0.178900,0.178800,0.178700,0.178600,0.178600,0.178500,0.178400,0.178400,0.178400,0.178500,0.178600,0.178700,0.178500,0.178400,0.178300,0.178200,0.178300,0.178200,0.178100,0.178000,0.177800,0.177500,0.177500,0.177300,0.177200,0.177100,0.177000,0.177000,0.177000,0.177200,0.177200,0.177300,0.177300,0.177200,0.177200,0.177000,0.176900,0.176800,0.176500,0.176400,0.176400,0.176400,0.176500,0.176500,0.176400,0.176200,0.176100,0.176000,0.176000,0.175900,0.175900,0.175900,0.175800,0.175800,0.175700,0.175600,0.175300,0.175200,0.175200,0.175100,0.175100,0.175000,0.175000,0.174900,0.174800,0.174700,0.174700,0.174700,0.174700,0.174700,0.174600,0.174400,0.174200,0.174200,0.174200,0.174200,0.174100,0.174000,0.173900,0.173800,0.173600,0.173400,0.173300,0.173300,0.173200,0.173200,0.173200,0.173100,0.173100,0.173000,0.172900,0.172800,0.172600,0.172600,0.172500,0.172500,0.172500,0.172500,0.172400,0.172400,0.172300,0.172200,0.172200,0.172100,0.172100,0.172100,0.172100,0.172000,0.171900,0.171800,0.171700,0.171600,0.171600,0.171400,0.171300,0.171100,0.171000,0.170900,0.170800,0.170800,0.170800,0.170800,0.170800,0.170700,0.170500,0.170400,0.170200,0.170000,0.170000,0.170000,0.170000,0.170000,1.000000,1.000000,0.485300,0.485200,0.485000,0.484900,0.484800,0.484400,0.483000,0.482900,0.482900,0.482900,1.000000,1.000000,1.000000,1.000000,1.000000,1.000000,1.000000,1.000000,1.000000,1.000000,1.000000,1.000000,1.000000,0.366200,0.366200,1.000000,1.000000,1.000000,1.000000,1.000000,1.000000,0.356800,1.000000,1.000000,1.000000,1.000000,1.000000,1.000000,1.000000,1.000000,0.481600,0.481600,0.481000,1.000000,0.480400,0.479900,0.479900,0.480000,0.480100,0.480100,0.480000,0.479900,0.479900,0.480000,0.479200,0.478000,0.478000,0.479000,0.479100,0.479100,0.478800,0.478600,0.478400,0.478200,0.478100,0.478100,0.476600,0.476600,0.476400,0.476300,0.475500,0.475400,0.476700,0.476800,0.476700,0.476500,0.476400
1.000000,1.000000,1.000000,0.554100,0.554200,0.554400,0.555400,1.000000,1.000000,1.000000,0.553400,0.553400,0.553600,0.553700,0.553800,0.554500,0.553800,0.553800,0.551900,0.550200,0.550200,0.549600,1.000000,1.000000,1.000000,1.000000,1.000000,1.000000,0.180200,0.180100,0.180100,0.180200,0.180300,0.180300,0.180300,0.179600,0.179500,0.179500,0.179500,0.179500,0.179400,0.179300,0.179000,0.179000,0.178900,0.178800,0.178800,0.178700,0.178600,0.178600,0.178500,0.178500,0.178400,0.178400,0.178500,0.178500,0.178500,0.178400,0.178300,0.178300,0.178300,0.178300,0.178300,0.178200,0.178000,0.177600,0.177500,0.177500,0.177300,0.177200,0.177100,0.176900,0.176900,0.177000,0.177100,0.177200,0.177300,0.177300,0.177200,0.177200,0.177100,0.177000,0.176800,0.176500,0.176500,0.176400,0.176500,0.176500,0.176500,0.176400,0.176200,0.176100,0.176100,0.176000,0.175900,0.175900,0.175800,0.175800,0.175700,0.175600,0.175500,0.175300,0.175200,0.175200,0.175200,0.175100,0.175100,0.175000,0.175000,0.174800,0.174800,0.174700,0.174700,0.174700,0.174600,0.174500,0.174200,0.174200,0.174200,0.174100,0.174100,0.174000,0.173900,0.173800,0.173700,0.173500,0.173400,0.173300,0.173200,0.173200,0.173100,0.173100,0.173000,0.172900,0.172900,0.172900,0.172800,0.172600,0.172600,0.172500,0.172400,0.172400,0.172400,0.172400,0.172300,0.172200,0.172200,0.172100,0.172100,0.172000,0.172000,0.171900,0.171900,0.171700,0.171600,0.171600,0.171500,0.171500,0.171300,0.171200,0.171000,0.171000,0.170900,0.170800,0.170800,0.170800,0.170800,0.170700,0.170600,0.170500,0.170300,0.170200,0.170000,0.170000,0.170000,0.170000,0.170000,1.000000,1.000000,0.485100,0.485100,0.485000,0.484800,0.484100,0.482700,0.482800,0.482900,0.482900,1.000000,1.000000,1.000000,1.000000,1.000000,1.000000,1.000000,1.000000,1.000000,1.000000,1.000000,1.000000,1.000000,1.000000,0.366100,0.366000,1.000000,1.000000,1.000000,1.000000,1.000000,1.000000,0.356800,0.356800,1.000000,1.000000,1.000000,1.000000,1.000000,1.000000,0.481000,0.481100,0.481000,0.480900,0.480900,0.480700,0.480400,0.480000,0.480100,0.480400,0.480100,0.479900,0.479800,0.479500,0.479400,0.478100,0.478100,0.478100,0.478100,0.478900,0.478900,0.477200,0.477000,0.477000,0.476900,0.476900,0.476800,0.476700,0.476600,0.476300,0.476200,0.474600,0.474700,0.475200,0.476400,0.476400,0.476400,0.475300
1.000000,1.000000,1.000000,1.000000,0.554200,0.555400,0.555500,1.000000,1.000000,1.000000,0.553400,0.553400,0.554000,0.553800,0.553800,0.553800,0.553700,0.553700,0.553600,0.550200,0.550100,0.549200,0.549200,1.000000,1.000000,1.000000,1.000000,1.000000,0.180200,0.180100,0.180200,0.180200,0.180300,0.180400,0.180300,0.179800,0.179600,0.179500,0.179500,0.179500,0.179400,0.179200,0.179000,0.178900,0.178900,0.178800,0.178800,0.178700,0.178600,0.178600,0.178500,0.178500,0.178500,0.178400,0.178500,0.178500,0.178500,0.178400,0.178300,0.178300,0.178300,0.178300,0.178300,0.178200,0.177600,0.177500,0.177500,0.177500,0.177400,0.177300,0.177100,0.176900,0.176900,0.177000,0.177100,0.177200,0.177200,0.177300,0.177200,0.177200,0.177100,0.177000,0.176900,0.176600,0.176500,0.176500,0.176500,0.176500,0.176400,0.176400,0.176200,0.176200,0.176100,0.176000,0.175900,0.175800,0.175700,0.175700,0.175700,0.175600,0.175500,0.175300,0.175200,0.175200,0.175200,0.175100,0.175100,0.175000,0.174900,0.174800,0.174700,0.174700,0.174600,0.174600,0.174500,0.174300,0.174100,0.174100,0.174100,0.174100,0.174000,0.174000,0.173800,0.173700,0.173600,0.173500,0.173400,0.173300,0.173200,0.173200,0.173100,0.173000,0.172900,0.172900,0.172900,0.172900,0.172800,0.172600,0.172600,0.172500,0.172400,0.172400,0.172300,0.172300,0.172200,0.172100,0.172100,0.172100,0.172000,0.172000,0.171900,0.171800,0.171800,0.171600,0.171500,0.171500,0.171400,0.171300,0.171200,0.171100,0.171000,0.170900,0.170900,0.170800,0.170800,0.170800,0.170700,0.170700,0.170500,0.170400,0.170200,0.170100,0.170000,0.170000,0.170000,0.170000,0.170200,1.000000,1.000000,0.485000,0.485000,0.484900,0.484000,0.483900,0.482600,0.482700,0.482800,0.482900,1.000000,1.000000,1.000000,1.000000,1.000000,1.000000,1.000000,1.000000,1.000000,1.000000,1.000000,1.000000,1.000000,1.000000,0.365400,0.364900,1.000000,1.000000,1.000000,1.000000,1.000000,1.000000,0.356800,0.356800,1.000000,1.000000,1.000000,1.000000,1.000000,1.000000,0.481000,0.481000,0.481000,0.480900,0.480900,0.480800,0.480700,0.480600,0.480600,0.480700,0.480600,0.480000,0.479800,0.479400,0.479300,0.478100,0.478100,0.478100,0.478100,0.478900,0.478900,0.477200,0.477000,0.477000,0.476900,0.476900,0.476800,0.476800,0.476600,0.476300,0.476200,0.474600,0.474700,0.475000,0.476300,0.476300,0.475300,0.475200
1.000000,1.000000,1.000000,0.555000,0.555100,0.556300,0.556600,0.557000,1.000000,1.000000,0.553400,0.554800,0.554300,0.553900,0.553800,0.553800,0.553700,0.553600,0.553600,0.552900,0.550200,0.549200,1.000000,1.000000,1.000000,1.000000,1.000000,1.000000,0.180200,0.180200,0.180200,0.180200,0.180400,0.180400,0.180400,0.179800,0.179700,0.179600,0.179600,0.179500,0.179300,0.179200,0.179000,0.178900,0.178900,0.178800,0.178800,0.178700,0.178700,0.178600,0.178600,0.178600,0.178600,0.178500,0.178500,0.178500,0.178500,0.178400,0.178300,0.178300,0.178300,0.178300,0.178300,0.178300,0.177400,0.177400,0.177400,0.177500,0.177500,0.177600,0.177600,0.177000,0.177000,0.177000,0.177000,0.177100,0.177200,0.177200,0.177200,0.177200,0.177200,0.177100,0.177000,0.176500,0.176400,0.176400,0.176400,0.176400,0.176400,0.176300,0.176200,0.176200,0.176000,0.176000,0.175800,0.175700,0.175500,0.175500,0.175500,0.175400,0.175400,0.175200,0.175200,0.175200,0.175100,0.175100,0.175000,0.174900,0.174800,0.174700,0.174600,0.174400,0.174300,0.174300,0.174100,0.174000,0.174000,0.174000,0.174000,0.174000,0.174000,0.173900,0.173700,0.173600,0.173600,0.173400,0.173400,0.173300,0.173200,0.173200,0.173000,0.173000,0.172900,0.172900,0.172900,0.172900,0.172900,0.172700,0.172600,0.172500,0.172300,0.172300,0.172200,0.172200,0.172100,0.172100,0.172000,0.172000,0.171900,0.171800,0.171700,0.171600,0.171500,0.171400,0.171400,0.171300,0.171200,0.171200,0.171000,0.171000,0.170900,0.170800,0.170800,0.170800,0.170800,0.170700,0.170600,0.170600,0.170400,0.170400,0.170200,0.170100,0.170000,0.170000,0.170000,0.170100,0.170300,0.170400,1.000000,0.485000,0.484900,0.484100,0.483900,0.482500,0.482500,0.482700,0.482800,1.000000,1.000000,1.000000,1.000000,1.000000,1.000000,1.000000,1.000000,1.000000,1.000000,1.000000,1.000000,1.000000,1.000000,1.000000,0.363600,0.363500,1.000000,1.000000,1.000000,1.000000,1.000000,1.000000,1.000000,1.000000,1.000000,1.000000,1.000000,1.000000,1.000000,1.000000,0.481000,0.481000,0.481000,0.481000,0.481000,0.480900,0.480900,0.480900,0.480900,0.480800,0.480700,0.480600,0.480500,0.480200,0.479300,0.479000,0.478800,0.478700,0.478700,0.478900,0.478900,0.478000,0.477000,0.476900,0.476900,0.476900,0.476900,0.476900,0.476800,0.476300,0.476300,0.474700,0.474700,0.474900,0.476100,0.476100,0.475000,0.475000
1.000000,1.000000,1.000000,1.000000,1.000000,0.556600,0.556600,0.557000,1.000000,1.000000,0.557200,0.556000,0.554300,0.554000,0.552800,1.000000,0.550000,0.550000,0.553500,0.551300,0.551300,0.549100,0.546700,1.000000,1.000000,1.000000,1.000000,1.000000,1.000000,0.180200,0.180200,0.180300,0.180400,0.180400,0.180400,0.180000,0.179700,0.179600,0.179500,0.179500,0.179300,0.179200,0.179000,0.179000,0.179000,0.178900,0.178800,0.178700,0.178700,0.178700,0.178700,0.178700,0.178600,0.178600,0.178600,0.178500,0.178500,0.178400,0.178400,0.178300,0.178300,0.178300,0.178200,0.178200,0.177400,0.177400,0.177400,0.177500,0.177500,0.177700,0.177700,0.177300,0.177000,0.177000,0.177000,0.177100,0.177100,0.177200,0.177200,0.177200,0.177200,0.177100,0.177000,0.176300,0.176300,0.176200,0.176200,0.176300,0.176300,0.176300,0.176200,0.176200,0.176000,0.175900,0.175700,0.175600,0.175400,0.175400,0.175400,0.175400,0.175300,0.175200,0.175200,0.175100,0.175100,0.175000,0.174900,0.174900,0.174800,0.174500,0.174300,0.174200,0.174100,0.174100,0.174000,0.174000,0.173900,0.173900,0.174000,0.174000,0.173900,0.173800,0.173600,0.173500,0.173400,0.173400,0.173300,0.173200,0.173200,0.173100,0.173000,0.173000,0.172900,0.172900,0.172900,0.172900,0.172900,0.172700,0.172600,0.172400,0.172200,0.172200,0.172100,0.172000,0.172000,0.171900,0.171800,0.171800,0.171600,0.171500,0.171400,0.171400,0.171400,0.171400,0.171300,0.171300,0.171200,0.171100,0.171000,0.170900,0.170800,0.170800,0.170800,0.170700,0.170700,0.170700,0.170600,0.170600,0.170400,0.170300,0.170200,0.170100,0.170100,0.170000,0.170000,0.170000,0.170100,0.170300,1.000000,0.484900,0.484900,0.483900,0.482400,0.482400,0.482100,0.482600,0.482800,0.482800,1.000000,1.000000,1.000000,0.383700,0.383700,1.000000,1.000000,1.000000,1.000000,1.000000,1.000000,1.000000,1.000000,0.363700,0.363600,0.363500,1.000000,1.000000,1.000000,1.000000,1.000000,1.000000,1.000000,1.000000,1.000000,1.000000,1.000000,1.000000,1.000000,1.000000,0.482300,0.481000,0.481000,0.481000,0.481000,0.481000,0.481000,0.481000,0.481000,0.480900,0.480700,0.480600,0.480500,0.480300,0.480300,0.480200,0.480200,0.480200,0.480200,0.480200,0.479000,0.479000,0.476900,0.476900,0.476900,0.476800,0.476800,0.476900,0.476900,0.476200,0.474800,0.474800,0.474900,0.475800,0.476000,0.476100,0.474900,0.474900
1.000000,1.000000,1.000000,1.000000,1.000000,1.000000,0.552800,0.552800,0.557200,0.555200,0.554700,0.554600,0.554400,0.554000,0.552900,1.000000,0.550000,0.550000,0.549900,0.551300,0.550000,0.547700,0.546800,0.546800,1.000000,1.000000,1.000000,1.000000,1.000000,0.180200,0.180200,0.180300,0.180300,0.180400,0.179800,0.179700,0.179700,0.179600,0.179500,0.179400,0.179200,0.179200,0.179000,0.179000,0.179000,0.179000,0.178900,0.178700,0.178700,0.178700,0.178700,0.178700,0.178700,0.178700,0.178600,0.178600,0.178600,0.178500,0.178400,0.178400,0.178300,0.178200,0.178200,0.178000,0.177500,0.177400,0.177400,0.177600,0.177700,0.177800,0.177800,0.177700,0.177500,0.177100,0.177100,0.177000,0.177100,0.177100,0.177100,0.177100,0.177100,0.177000,0.176200,0.176200,0.176100,0.176100,0.176100,0.176200,0.176200,0.176200,0.176100,0.176100,0.176000,0.175700,0.175500,0.175400,0.175300,0.175300,0.175300,0.175300,0.175300,0.175200,0.175200,0.175100,0.175000,0.175000,0.174800,0.174700,0.174500,0.174200,0.174100,0.174000,0.174000,0.174000,0.173900,0.173900,0.173900,0.174000,0.174000,0.174000,0.173900,0.173800,0.173500,0.173400,0.173400,0.173300,0.173300,0.173200,0.173200,0.173100,0.173100,0.173000,0.172900,0.172900,0.172900,0.173000,0.172900,0.172700,0.172600,0.172400,0.172200,0.172100,0.172000,0.172000,0.172000,0.171900,0.171900,0.171700,0.171500,0.171400,0.171300,0.171300,0.171300,0.171300,0.171300,0.171200,0.171100,0.171100,0.171000,0.170900,0.170800,0.170700,0.170700,0.170600,0.170600,0.170600,0.170600,0.170500,0.170400,0.170300,0.170200,0.170100,0.170100,0.170000,0.170000,0.170000,0.170000,0.170000,1.000000,0.485000,0.485000,0.484900,0.483800,0.482200,0.481800,0.481700,0.481600,0.481600,1.000000,1.000000,1.000000,0.384700,0.383800,1.000000,1.000000,1.000000,1.000000,1.000000,1.000000,1.000000,1.000000,1.000000,1.000000,1.000000,1.000000,1.000000,1.000000,0.361800,1.000000,1.000000,1.000000,1.000000,1.000000,1.000000,1.000000,0.352700,1.000000,1.000000,1.000000,0.482400,0.482500,0.483000,0.482000,0.481200,0.481200,0.481200,0.481100,0.481000,0.480700,0.480600,0.480500,0.480300,0.480300,0.480200,0.480200,0.480200,0.480200,0.480200,0.479000,0.479000,0.478400,0.478300,0.476800,0.476800,0.476700,0.476800,0.476400,0.476100,0.474800,0.474800,0.474900,0.475300,0.475800,0.475500,0.474600,0.474600
1.000000,1.000000,1.000000,1.000000,1.000000,0.552900,0.552900,0.550600,0.552800,0.554800,0.554600,0.554600,0.554500,0.554400,0.553000,0.552800,0.552800,0.550000,0.549900,0.549800,0.549800,0.547700,0.546800,0.546800,1.000000,1.000000,1.000000,1.000000,1.000000,0.180200,0.180200,0.180200,0.180300,0.180300,0.179700,0.179700,0.179600,0.179600,0.179500,0.179400,0.179200,0.179200,0.179100,0.179100,0.179100,0.179000,0.178900,0.178700,0.178700,0.178700,0.178700,0.178800,0.178700,0.178700,0.178600,0.178600,0.178500,0.178500,0.178400,0.178300,0.178200,0.178200,0.178000,0.177900,0.177600,0.177500,0.177500,0.177600,0.177700,0.177700,0.177700,0.177500,0.177400,0.177200,0.177100,0.177000,0.177000,0.177000,0.177000,0.177000,0.176900,0.176400,0.176200,0.176100,0.176100,0.176100,0.176100,0.176100,0.176100,0.176100,0.176100,0.176000,0.175900,0.175700,0.175400,0.175300,0.175300,0.175300,0.175300,0.175300,0.175300,0.175200,0.175200,0.175100,0.175000,0.174900,0.174700,0.174600,0.174400,0.174200,0.174100,0.174000,0.174000,0.174000,0.174000,0.173900,0.173900,0.174000,0.174000,0.174000,0.174000,0.173800,0.173500,0.173400,0.173400,0.173300,0.173300,0.173200,0.173200,0.173200,0.173100,0.173000,0.173000,0.172900,0.172900,0.172900,0.172900,0.172600,0.172400,0.172300,0.172200,0.172100,0.172000,0.172000,0.172000,0.171900,0.171900,0.171700,0.171400,0.171400,0.171300,0.171300,0.171300,0.171300,0.171200,0.171200,0.171100,0.171100,0.170900,0.170900,0.170800,0.170700,0.170700,0.170600,0.170600,0.170600,0.170500,0.170500,0.170400,0.170300,0.170200,0.170200,0.170100,0.170100,0.170000,0.170000,0.170000,0.170000,1.000000,0.485000,0.485000,0.485000,0.484900,0.484000,0.481700,0.481600,1.000000,1.000000,1.000000,1.000000,1.000000,0.384700,1.000000,1.000000,1.000000,1.000000,1.000000,1.000000,1.000000,1.000000,1.000000,1.000000,1.000000,1.000000,1.000000,1.000000,1.000000,0.360300,1.000000,1.000000,1.000000,1.000000,1.000000,1.000000,1.000000,0.352600,1.000000,0.482200,0.482400,0.482400,0.482600,0.483400,0.483800,0.482400,0.481200,0.481200,0.481200,0.481100,0.480700,0.480600,0.480500,0.480300,0.480200,0.480100,0.480100,0.480100,0.480100,0.480200,0.479100,0.478600,0.478400,0.476800,0.476700,0.476500,0.476400,0.476200,0.476100,0.474800,0.474800,0.474800,0.474800,0.474800,0.474600,0.474600,0.474600,0.474600
1.000000,1.000000,1.000000,1.000000,1.000000,1.000000,1.000000,0.550400,0.552800,0.554700,0.554600,0.554600,0.554500,0.554500,0.554500,0.554500,0.552800,0.552800,0.549800,0.549600,0.549400,0.547700,0.546800,1.000000,1.000000,1.000000,1.000000,1.000000,1.000000,0.180200,0.180200,0.180200,0.180100,0.180000,0.179700,0.179700,0.179600,0.179600,0.179500,0.179400,0.179200,0.179100,0.179100,0.179100,0.179100,0.179000,0.178900,0.178700,0.178700,0.178700,0.178700,0.178700,0.178700,0.178600,0.178600,0.178500,0.178500,0.178400,0.178300,0.178300,0.178200,0.178100,0.178000,0.177900,0.177600,0.177600,0.177500,0.177500,0.177600,0.177600,0.177600,0.177400,0.177300,0.177100,0.177100,0.177000,0.176900,0.176900,0.176900,0.176900,0.176800,0.176300,0.176200,0.176100,0.176100,0.176000,0.176000,0.176000,0.176000,0.176000,0.176000,0.175900,0.175800,0.175600,0.175400,0.175300,0.175300,0.175300,0.175300,0.175300,0.175300,0.175200,0.175200,0.175100,0.175000,0.174900,0.174700,0.174500,0.174400,0.174200,0.174100,0.174100,0.174000,0.174000,0.174000,0.174000,0.174000,0.174000,0.174000,0.174000,0.173900,0.173700,0.173500,0.173400,0.173400,0.173300,0.173300,0.173200,0.173200,0.173200,0.173100,0.173100,0.172900,0.172900,0.172900,0.172800,0.172800,0.172500,0.172400,0.172300,0.172200,0.172100,0.172000,0.172000,0.172000,0.172000,0.171900,0.171700,0.171600,0.171400,0.171300,0.171300,0.171300,0.171200,0.171200,0.171200,0.171100,0.171000,0.170900,0.170900,0.170800,0.170700,0.170700,0.170600,0.170600,0.170500,0.170500,0.170400,0.170300,0.170300,0.170200,0.170200,0.170200,0.170100,0.170000,0.170000,0.170000,0.170000,1.000000,0.485100,0.485100,0.485000,0.484900,0.484700,0.482700,0.481600,0.481600,1.000000,1.000000,1.000000,1.000000,1.000000,1.000000,1.000000,1.000000,1.000000,1.000000,1.000000,1.000000,1.000000,1.000000,1.000000,1.000000,1.000000,1.000000,1.000000,1.000000,1.000000,1.000000,1.000000,1.000000,1.000000,1.000000,1.000000,1.000000,0.352600,1.000000,0.481900,0.482000,0.482200,0.482400,0.483800,0.483800,0.483800,0.482700,0.481300,0.481300,0.481200,0.480700,0.480600,0.480500,0.480300,0.480100,0.480000,0.480100,0.480100,0.480100,0.480100,0.478800,0.478200,0.476800,0.476800,0.476700,0.476400,0.476300,0.476100,0.476100,0.474700,0.474700,0.474700,0.474700,0.474600,0.474600,0.474500,0.474500,0.474500
1.000000,0.555000,0.555000,0.555000,0.555100,0.555100,0.550600,0.550300,0.550500,0.554500,0.554500,0.554500,0.552800,0.552800,0.554500,0.554600,0.554700,0.554700,1.000000,0.549300,0.549400,0.547800,0.546800,1.000000,1.000000,1.000000,1.000000,1.000000,1.000000,0.180000,0.180000,0.180000,0.179900,0.179800,0.179600,0.179600,0.179500,0.179500,0.179400,0.179300,0.179100,0.179100,0.179100,0.179100,0.179100,0.179000,0.178800,0.178700,0.178600,0.178700,0.178700,0.178700,0.178600,0.178600,0.178500,0.178400,0.178400,0.178300,0.178200,0.178200,0.178100,0.178100,0.178000,0.177900,0.177700,0.177500,0.177400,0.177500,0.177500,0.177500,0.177500,0.177400,0.177300,0.177100,0.177000,0.177000,0.176900,0.176800,0.176800,0.176700,0.176500,0.176300,0.176200,0.176200,0.176100,0.176100,0.176000,0.176000,0.175900,0.175900,0.175800,0.175700,0.175700,0.175500,0.175400,0.175300,0.175200,0.175200,0.175300,0.175300,0.175300,0.175200,0.175200,0.175100,0.175000,0.174900,0.174600,0.174400,0.174300,0.174200,0.174100,0.174100,0.174100,0.174100,0.174100,0.174100,0.174000,0.174000,0.174000,0.173900,0.173800,0.173600,0.173400,0.173400,0.173300,0.173300,0.173300,0.173300,0.173300,0.173300,0.173200,0.173100,0.172900,0.172900,0.172800,0.172700,0.172600,0.172400,0.172400,0.172300,0.172100,0.172100,0.172100,0.172100,0.172000,0.172000,0.172000,0.171800,0.171600,0.171400,0.171400,0.171300,0.171300,0.171200,0.171200,0.171100,0.171100,0.171000,0.170900,0.170900,0.170800,0.170700,0.170700,0.170600,0.170600,0.170500,0.170400,0.170400,0.170300,0.170300,0.170200,0.170200,0.170200,0.170100,0.170100,0.170000,0.170000,0.170000,1.000000,0.485100,0.485100,0.484700,0.484400,0.484300,0.482600,0.482600,0.482600,1.000000,1.000000,1.000000,1.000000,1.000000,1.000000,1.000000,1.000000,1.000000,1.000000,1.000000,1.000000,1.000000,1.000000,0.480800,1.000000,1.000000,1.000000,0.480700,0.480800,0.480900,1.000000,0.480900,0.481000,0.481000,0.481000,1.000000,1.000000,0.352400,1.000000,0.481800,0.481800,0.481800,0.482000,0.482900,0.483800,0.483800,0.483800,0.482700,0.481500,0.481500,0.480700,0.480600,0.480500,0.480200,0.480000,0.479900,0.479900,0.479900,0.479600,0.479200,0.477600,0.477000,0.476900,0.476800,0.476700,0.476400,0.476300,0.476100,0.476000,0.475900,0.474600,0.474600,0.473500,0.473500,0.473500,0.474500,0.474400,0.474400
1.000000,1.000000,1.000000,0.555000,0.555100,0.555100,0.554800,0.553300,0.553300,0.554300,0.554300,0.552600,0.552600,0.552600,0.552600,0.554800,0.553100,0.550800,0.548600,0.548600,0.549400,0.549400,0.547800,0.546800,1.000000,0.550400,1.000000,1.000000,1.000000,0.180000,0.180000,0.179900,0.179800,0.179700,0.179500,0.179500,0.179500,0.179400,0.179400,0.179300,0.179100,0.179000,0.179000,0.179000,0.179000,0.178800,0.178600,0.178500,0.178500,0.178600,0.178600,0.178600,0.178500,0.178400,0.178300,0.178200,0.178200,0.178100,0.178100,0.178100,0.178000,0.177900,0.177800,0.177700,0.177200,0.177200,0.177100,0.177200,0.177200,0.177200,0.177200,0.177200,0.177100,0.177000,0.177000,0.176900,0.176800,0.176800,0.176800,0.176700,0.176500,0.176400,0.176300,0.176200,0.176200,0.176100,0.176000,0.176000,0.175800,0.175800,0.175700,0.175700,0.175600,0.175400,0.175400,0.175300,0.175300,0.175300,0.175300,0.175200,0.175200,0.175200,0.175200,0.175100,0.175000,0.174900,0.174500,0.174400,0.174300,0.174200,0.174200,0.174200,0.174200,0.174200,0.174100,0.174100,0.174000,0.174000,0.173900,0.173700,0.173600,0.173500,0.173400,0.173400,0.173300,0.173300,0.173300,0.173300,0.173300,0.173300,0.173200,0.173000,0.172800,0.172700,0.172600,0.172500,0.172400,0.172300,0.172300,0.172200,0.172100,0.172100,0.172000,0.172000,0.172000,0.172000,0.172000,0.171800,0.171700,0.171500,0.171400,0.171300,0.171300,0.171200,0.171200,0.171200,0.171100,0.171000,0.170900,0.170900,0.170800,0.170700,0.170700,0.170600,0.170600,0.170500,0.170400,0.170400,0.170300,0.170300,0.170200,0.170200,0.170200,0.170100,0.170100,0.170100,0.170100,1.000000,1.000000,0.485000,0.485000,0.484400,0.484200,0.484100,0.482600,0.482600,0.482600,1.000000,1.000000,1.000000,0.483300,0.483300,1.000000,1.000000,1.000000,1.000000,1.000000,1.000000,1.000000,1.000000,1.000000,1.000000,0.482200,0.482200,0.480700,0.480700,0.480800,1.000000,0.480900,0.480900,0.481000,0.481000,0.481000,1.000000,1.000000,0.352300,1.000000,0.481700,0.481700,0.481700,0.481800,0.481800,0.482800,0.482800,0.482700,0.482600,0.482300,0.481800,0.480600,0.480400,0.480400,0.479400,0.479100,0.478800,0.478700,0.478700,0.478900,0.478800,0.477200,0.477000,0.476900,0.476800,0.476800,0.476700,0.476600,0.476100,0.476000,0.475900,0.475700,0.475600,0.473500,0.473500,0.473400,0.474400,0.474400,0.474400
