0.555500,0.555500,0.555500,0.555500,1.000000,1.000000,1.000000,1.000000,1.000000,1.000000,0.555800,0.555800,0.554400,0.555800,0.555900,1.000000,1.000000,0.555800,0.554000,0.553000,1.000000,1.000000,1.000000,1.000000,1.000000,1.000000,1.000000,1.000000,1.000000,1.000000,0.181500,0.180300,0.180300,0.180200,0.180000,0.179800,0.179700,0.179600,0.179500,0.179500,0.179600,0.179600,0.179500,0.179400,0.179300,0.179100,0.179000,0.179000,0.179100,0.179100,0.179200,0.179200,0.179100,0.179000,0.178900,0.178600,0.178600,0.178600,0.178600,0.178600,0.178500,0.178400,0.178300,0.178200,0.178100,0.178100,0.178000,0.177900,0.177800,0.177800,0.177700,0.177700,0.177600,0.177600,0.177600,0.177600,0.177500,0.177500,0.177300,0.177200,0.177000,0.176900,0.176800,0.176700,0.176700,0.176700,0.176800,0.176700,0.176600,0.176400,0.176300,0.176200,0.176000,0.175900,0.175800,0.175800,0.175700,0.175600,0.175600,0.175600,0.175600,0.175600,0.175500,0.175400,0.175300,0.175300,0.175400,0.175400,0.175400,0.175400,0.175400,0.175200,0.175100,0.174800,0.174700,0.174500,0.174400,0.174300,0.174200,0.174100,0.174000,0.174000,0.174000,0.174000,0.174000,0.173800,0.173700,0.173500,0.173400,0.173400,0.173300,0.173200,0.173200,0.173100,0.173100,0.173200,0.173200,0.173300,0.173200,0.173000,0.172900,0.172700,0.172600,0.172500,0.172400,0.172400,0.172300,0.172200,0.172000,0.171900,0.171800,0.171700,0.171600,0.171600,0.171600,0.171600,0.171600,0.171500,0.171500,0.171500,0.171400,0.171300,0.171200,0.171100,0.171000,0.170800,0.170700,0.170600,0.170500,0.170500,0.170400,0.170400,0.170300,0.170300,0.170100,0.170100,0.170000,0.170000,1.000000,1.000000,0.486500,0.484200,0.484200,0.484200,0.484100,0.484000,0.482400,0.481500,1.000000,1.000000,1.000000,1.000000,1.000000,1.000000,1.000000,1.000000,1.000000,1.000000,1.000000,1.000000,1.000000,1.000000,1.000000,1.000000,1.000000,1.000000,1.000000,1.000000,1.000000,1.000000,1.000000,1.000000,1.000000,0.482400,0.482300,0.482200,0.481900,0.481900,0.483000,0.484200,0.484200,0.484100,0.484100,0.481400,0.481400,0.481500,0.481500,0.481900,0.482100,0.480600,0.480100,0.479900,0.479100,0.479100,0.479000,0.479100,0.480800,0.480500,0.480400,0.479000,0.479000,0.478900,0.478800,0.478800,0.478700,0.478300,0.476700,0.476600,0.476500,0.476200,0.476100,0.476100,0.476100,0.476100,0.476100,0.475200
1.000000,1.000000,0.555600,0.555600,1.000000,1.000000,1.000000,1.000000,1.000000,1.000000,1.000000,1.000000,0.554400,0.554400,0.556800,0.560100,0.560100,0.560100,0.554000,0.553000,0.553000,1.000000,1.000000,1.000000,1.000000,1.000000,1.000000,1.000000,1.000000,1.000000,0.180400,0.180300,0.180200,0.180200,0.180000,0.179900,0.179800,0.179600,0.179500,0.179500,0.179600,0.179600,0.179500,0.179400,0.179300,0.179100,0.179000,0.179000,0.179000,0.179100,0.179100,0.179200,0.179100,0.179000,0.178800,0.178500,0.178500,0.178500,0.178400,0.178400,0.178300,0.178200,0.178200,0.178100,0.178100,0.178000,0.177900,0.177900,0.177800,0.177800,0.177700,0.177600,0.177600,0.177500,0.177600,0.177600,0.177500,0.177500,0.177200,0.177100,0.176900,0.176900,0.176800,0.176700,0.176700,0.176800,0.176800,0.176700,0.176500,0.176300,0.176200,0.176100,0.176000,0.175900,0.175800,0.175800,0.175700,0.175700,0.175700,0.175700,0.175600,0.175500,0.175400,0.175300,0.175100,0.175000,0.174900,0.175100,0.175300,0.175300,0.175300,0.175200,0.175100,0.174800,0.174600,0.174400,0.174400,0.174200,0.174100,0.174100,0.174000,0.174000,0.174000,0.174000,0.174000,0.173900,0.173800,0.173600,0.173500,0.173400,0.173300,0.173300,0.173200,0.173100,0.173100,0.173000,0.173000,0.172900,0.172800,0.172800,0.172700,0.172600,0.172500,0.172400,0.172400,0.172400,0.172300,0.172200,0.172000,0.171900,0.171800,0.171700,0.171600,0.171600,0.171600,0.171600,0.171600,0.171600,0.171500,0.171500,0.171400,0.171300,0.171300,0.171100,0.171000,0.170800,0.170700,0.170600,0.170500,0.170500,0.170500,0.170500,0.170400,0.170300,0.170200,0.170100,0.170100,0.170100,1.000000,0.486500,0.486500,0.483800,0.483700,0.483600,0.483500,0.483300,0.481700,0.481600,1.000000,1.000000,1.000000,1.000000,1.000000,1.000000,1.000000,1.000000,1.000000,1.000000,1.000000,1.000000,1.000000,1.000000,1.000000,1.000000,1.000000,1.000000,1.000000,1.000000,1.000000,1.000000,1.000000,1.000000,1.000000,0.482200,0.482100,0.482000,0.481800,0.481800,0.481800,0.484200,0.484400,0.484400,0.484000,0.481400,0.481400,0.481400,0.481400,0.482400,0.482400,0.480200,0.479900,0.479600,0.479100,0.479100,0.479100,0.479100,0.479400,0.480500,0.479200,0.479000,0.479000,0.478900,0.478800,0.478700,0.478600,0.478600,0.476800,0.476500,0.476200,0.476100,0.476100,0.476100,0.476100,0.476100,0.476100,0.475000
1.000000,0.555600,0.555600,0.555600,1.000000,1.000000,1.000000,1.000000,0.556400,0.556500,0.558200,1.000000,0.554400,0.554400,1.000000,1.000000,1.000000,1.000000,1.000000,0.553000,0.553000,0.553100,0.553100,1.000000,1.000000,1.000000,1.000000,1.000000,1.000000,1.000000,0.180300,0.180300,0.180200,0.180200,0.180000,0.179900,0.179800,0.179600,0.179600,0.179600,0.179600,0.179600,0.179600,0.179400,0.179100,0.179000,0.179000,0.179000,0.179000,0.179000,0.179000,0.179100,0.179000,0.178900,0.178600,0.178400,0.178400,0.178400,0.178400,0.178300,0.178200,0.178200,0.178100,0.178100,0.178000,0.178000,0.178000,0.177900,0.177800,0.177800,0.177700,0.177600,0.177600,0.177500,0.177500,0.177500,0.177500,0.177500,0.177200,0.177100,0.176900,0.176900,0.176800,0.176800,0.176800,0.176800,0.176800,0.176700,0.176500,0.176300,0.176200,0.176100,0.176000,0.175900,0.175900,0.175800,0.175800,0.175700,0.175700,0.175700,0.175700,0.175500,0.175400,0.175200,0.175000,0.174900,0.174700,0.174700,0.175200,0.175200,0.175200,0.175000,0.174700,0.174600,0.174500,0.174400,0.174300,0.174200,0.174100,0.174000,0.173900,0.173900,0.173900,0.174000,0.174000,0.173900,0.173800,0.173600,0.173600,0.173500,0.173400,0.173300,0.173200,0.173100,0.173100,0.173000,0.172900,0.172800,0.172800,0.172700,0.172600,0.172500,0.172500,0.172400,0.172400,0.172400,0.172300,0.172200,0.172100,0.172000,0.171900,0.171700,0.171700,0.171600,0.171600,0.171600,0.171600,0.171600,0.171500,0.171500,0.171400,0.171300,0.171200,0.171100,0.171000,0.170800,0.170700,0.170600,0.170500,0.170500,0.170500,0.170500,0.170400,0.170300,0.170200,0.170100,0.170100,1.000000,1.000000,0.486500,0.486400,0.483700,0.483600,0.483600,0.483400,0.483400,0.481700,0.481700,1.000000,1.000000,1.000000,1.000000,1.000000,1.000000,1.000000,1.000000,1.000000,1.000000,1.000000,1.000000,1.000000,1.000000,1.000000,1.000000,1.000000,1.000000,1.000000,1.000000,1.000000,1.000000,1.000000,1.000000,1.000000,0.480400,0.481700,0.481800,0.481800,0.481800,0.481800,0.483300,0.484600,0.484600,0.481600,0.481400,0.481400,0.481400,0.481400,0.482500,0.482500,0.480100,0.479900,0.479500,0.479300,0.479200,0.479200,0.479200,0.479400,0.479300,0.479100,0.479000,0.478900,0.478900,0.478700,0.478700,0.478600,0.478500,0.476900,0.476100,0.476100,0.475300,0.474300,0.474300,0.474300,0.475400,0.475100,0.474900
1.000000,0.556900,0.556800,0.555700,1.000000,0.557400,0.555400,0.555400,1.000000,1.000000,0.556500,1.000000,1.000000,0.554400,0.558000,1.000000,1.000000,1.000000,1.000000,0.553000,1.000000,0.553100,0.553100,1.000000,1.000000,1.000000,1.000000,1.000000,1.000000,1.000000,0.180300,0.180200,0.180200,0.180200,0.180000,0.179900,0.179900,0.179700,0.179700,0.179700,0.179700,0.179700,0.178800,0.178800,0.178900,0.178900,0.179000,0.179000,0.179000,0.179000,0.178900,0.178900,0.178700,0.178500,0.178400,0.178300,0.178300,0.178300,0.178200,0.178200,0.178100,0.178100,0.178000,0.178000,0.178000,0.178000,0.178000,0.178000,0.177900,0.177900,0.177800,0.177600,0.177600,0.177500,0.177500,0.177500,0.177500,0.177500,0.177200,0.177000,0.176900,0.176900,0.176800,0.176800,0.176800,0.176800,0.176800,0.176700,0.176500,0.176300,0.176200,0.176100,0.176000,0.176000,0.175900,0.175900,0.175800,0.175800,0.175800,0.175700,0.175700,0.175500,0.175400,0.175200,0.174900,0.174800,0.174700,0.174600,0.174600,0.174700,0.174700,0.174500,0.174400,0.174400,0.174300,0.174300,0.174200,0.174100,0.174000,0.174000,0.173900,0.173900,0.173900,0.173900,0.174000,0.173900,0.173800,0.173600,0.173600,0.173500,0.173400,0.173300,0.173200,0.173100,0.173100,0.172900,0.172900,0.172800,0.172700,0.172600,0.172600,0.172500,0.172500,0.172400,0.172400,0.172300,0.172300,0.172200,0.172100,0.172000,0.171900,0.171800,0.171800,0.171800,0.171800,0.171800,0.171700,0.171600,0.171400,0.171400,0.171200,0.171200,0.171200,0.171100,0.171000,0.170800,0.170800,0.170600,0.170500,0.170400,0.170400,0.170400,0.170400,0.170300,0.170200,0.170200,0.170100,0.170100,1.000000,0.486400,0.486400,0.483600,0.483600,0.483500,0.483400,0.483400,0.481800,0.481900,1.000000,1.000000,1.000000,1.000000,1.000000,1.000000,1.000000,1.000000,1.000000,1.000000,1.000000,1.000000,1.000000,1.000000,1.000000,1.000000,1.000000,1.000000,1.000000,1.000000,1.000000,1.000000,1.000000,1.000000,1.000000,0.480300,0.480200,0.480100,1.000000,1.000000,0.481800,0.482100,1.000000,0.481700,0.481600,0.481600,0.481500,1.000000,0.482400,0.482500,0.481600,0.480000,0.479800,0.479500,0.479500,0.479400,0.479600,0.479600,0.479500,0.479200,0.478300,0.477800,0.477800,0.478400,0.478600,0.478500,0.478500,0.477200,0.477200,0.476000,0.475700,0.474300,0.474300,0.474300,0.474300,0.474400,0.474500,0.474700
0.556900,0.556900,0.557000,0.557100,0.557300,1.000000,0.557500,1.000000,1.000000,1.000000,1.000000,1.000000,1.000000,1.000000,1.000000,1.000000,1.000000,1.000000,1.000000,1.000000,1.000000,0.553100,0.553100,0.553200,0.551800,1.000000,1.000000,1.000000,1.000000,1.000000,0.180200,0.180200,0.180200,0.180200,0.180000,0.180000,0.179900,0.179800,0.179800,0.179800,0.179800,0.179700,0.178800,0.178800,0.178800,0.178900,0.178900,0.179000,0.179000,0.179000,0.178900,0.178800,0.178600,0.178400,0.178300,0.178200,0.178200,0.178100,0.178100,0.178100,0.178000,0.177900,0.177900,0.177900,0.178000,0.178000,0.178000,0.178100,0.178000,0.177900,0.177800,0.177600,0.177600,0.177500,0.177500,0.177500,0.177400,0.177400,0.177000,0.176900,0.176800,0.176800,0.176800,0.176800,0.176800,0.176700,0.176700,0.176700,0.176500,0.176400,0.176300,0.176200,0.176100,0.176100,0.176000,0.175900,0.175900,0.175800,0.175800,0.175800,0.175700,0.175500,0.175400,0.175200,0.174900,0.174800,0.174600,0.174600,0.174600,0.174600,0.174600,0.174500,0.174400,0.174400,0.174300,0.174300,0.174200,0.174100,0.174100,0.174000,0.173900,0.173900,0.173900,0.173900,0.173900,0.173800,0.173700,0.173600,0.173600,0.173500,0.173400,0.173300,0.173200,0.173100,0.173000,0.172900,0.172800,0.172700,0.172600,0.172600,0.172600,0.172500,0.172400,0.172400,0.172300,0.172300,0.172200,0.172200,0.172100,0.172000,0.171900,0.171800,0.171800,0.171800,0.171800,0.171800,0.171800,0.171600,0.171400,0.171300,0.171200,0.171100,0.171100,0.171100,0.171000,0.170800,0.170800,0.170600,0.170500,0.170400,0.170400,0.170400,0.170400,0.170300,0.170300,0.170200,0.170200,0.170200,1.000000,0.485800,0.485800,0.483600,0.483600,0.483500,0.483400,0.483400,0.482000,0.482000,0.482100,1.000000,1.000000,1.000000,1.000000,1.000000,1.000000,1.000000,1.000000,1.000000,1.000000,1.000000,1.000000,1.000000,1.000000,1.000000,1.000000,1.000000,1.000000,1.000000,1.000000,1.000000,1.000000,1.000000,1.000000,1.000000,1.000000,1.000000,1.000000,1.000000,1.000000,1.000000,1.000000,0.481800,1.000000,0.481900,0.482000,0.482100,0.482200,0.482400,0.480400,0.479900,0.479800,0.479600,0.479500,0.479500,0.479900,0.479800,0.479600,0.477700,0.477600,0.477600,0.477600,0.477700,0.478100,0.478200,0.477300,0.477200,0.477200,0.475900,0.475500,0.474300,0.474300,0.474300,0.474300,0.474400,0.474300,0.474000
0.557000,0.557000,0.557100,0.557100,0.557300,1.000000,1.000000,1.000000,1.000000,1.000000,1.000000,1.000000,1.000000,1.000000,1.000000,1.000000,1.000000,1.000000,1.000000,1.000000,1.000000,1.000000,0.550900,0.551000,0.551000,1.000000,1.000000,1.000000,1.000000,1.000000,0.180200,0.180200,0.180200,0.180100,0.180100,0.180000,0.180000,0.179900,0.179900,0.179800,0.179800,0.179800,0.178800,0.178800,0.178800,0.178800,0.178900,0.178900,0.179000,0.178900,0.178900,0.178800,0.178600,0.178500,0.178400,0.178200,0.178200,0.178100,0.178000,0.178000,0.178000,0.177900,0.177800,0.177800,0.177900,0.178000,0.178000,0.178100,0.178000,0.177900,0.177800,0.177600,0.177600,0.177500,0.177500,0.177500,0.177400,0.177300,0.177000,0.176900,0.176800,0.176800,0.176800,0.176800,0.176700,0.176600,0.176600,0.176600,0.176600,0.176400,0.176400,0.176300,0.176200,0.176100,0.176000,0.175900,0.175900,0.175900,0.175900,0.175800,0.175700,0.175600,0.175400,0.175300,0.174900,0.174800,0.174600,0.174600,0.174600,0.174500,0.174500,0.174400,0.174400,0.174400,0.174300,0.174300,0.174200,0.174200,0.174100,0.174000,0.173900,0.173900,0.173900,0.173800,0.173800,0.173700,0.173700,0.173600,0.173500,0.173400,0.173300,0.173300,0.173100,0.173000,0.173000,0.172900,0.172800,0.172700,0.172600,0.172600,0.172600,0.172600,0.172500,0.172400,0.172300,0.172300,0.172200,0.172200,0.172100,0.172000,0.172000,0.171900,0.171900,0.171900,0.171900,0.171900,0.171800,0.171400,0.171200,0.171100,0.171000,0.171000,0.171000,0.171000,0.171000,0.170800,0.170800,0.170600,0.170400,0.170300,0.170300,0.170300,0.170200,0.170200,0.170200,0.170300,0.170300,0.170300,1.000000,0.485500,1.000000,0.483800,0.483600,0.483500,0.483400,0.483400,0.482200,0.482200,0.482300,1.000000,1.000000,1.000000,1.000000,1.000000,1.000000,1.000000,1.000000,1.000000,1.000000,1.000000,1.000000,1.000000,1.000000,1.000000,1.000000,1.000000,1.000000,1.000000,1.000000,1.000000,1.000000,1.000000,1.000000,1.000000,1.000000,1.000000,1.000000,1.000000,1.000000,1.000000,0.481800,0.482100,1.000000,0.481900,0.482000,0.482000,0.482200,0.481000,0.480200,0.480000,0.480000,0.479900,0.480100,0.480100,0.480000,0.480000,0.479200,0.477600,0.476900,0.476900,0.477500,0.477600,0.477900,0.478000,0.477300,0.477200,0.477200,0.475800,0.475400,0.474400,0.474400,0.475500,0.474900,0.474400,0.474300,0.474100
0.554600,0.554800,0.557100,0.557200,0.557400,1.000000,1.000000,1.000000,1.000000,1.000000,1.000000,0.555600,1.000000,1.000000,1.000000,1.000000,1.000000,1.000000,1.000000,1.000000,1.000000,0.549500,0.549500,0.551000,0.551000,1.000000,1.000000,1.000000,1.000000,0.180100,0.180100,0.180100,0.180200,0.180200,0.180100,0.180000,0.180000,0.179900,0.179800,0.179800,0.179800,0.179700,0.179000,0.178900,0.178900,0.178900,0.179000,0.179000,0.179000,0.179000,0.178900,0.178900,0.178700,0.178600,0.178500,0.178200,0.178100,0.178000,0.178000,0.178000,0.178000,0.177900,0.177800,0.177800,0.177800,0.177800,0.177900,0.177900,0.177900,0.177800,0.177700,0.177500,0.177500,0.177500,0.177500,0.177400,0.177300,0.177200,0.177000,0.176900,0.176800,0.176700,0.176700,0.176700,0.176600,0.176600,0.176600,0.176600,0.176500,0.176500,0.176400,0.176400,0.176200,0.176100,0.176000,0.175900,0.175900,0.175900,0.175900,0.175800,0.175800,0.175600,0.175400,0.175400,0.175000,0.174900,0.174700,0.174600,0.174600,0.174600,0.174600,0.174500,0.174400,0.174400,0.174300,0.174300,0.174300,0.174200,0.174200,0.174100,0.174000,0.173900,0.173900,0.173800,0.173800,0.173600,0.173600,0.173400,0.173400,0.173300,0.173200,0.173100,0.173000,0.172900,0.172800,0.172700,0.172700,0.172600,0.172600,0.172600,0.172500,0.172600,0.172500,0.172400,0.172300,0.172200,0.172100,0.172100,0.172000,0.172000,0.171900,0.171900,0.171900,0.171900,0.171900,0.171900,0.171800,0.171300,0.171100,0.171000,0.171000,0.170900,0.170900,0.170900,0.170900,0.170800,0.170800,0.170600,0.170400,0.170300,0.170200,0.170200,0.170200,0.170200,0.170200,0.170300,0.170300,0.170300,1.000000,1.000000,0.485400,0.485400,0.484200,0.483500,0.483400,0.483300,0.482400,0.482400,1.000000,1.000000,1.000000,1.000000,1.000000,1.000000,1.000000,1.000000,1.000000,1.000000,1.000000,1.000000,1.000000,1.000000,1.000000,1.000000,1.000000,1.000000,1.000000,1.000000,1.000000,1.000000,1.000000,1.000000,1.000000,1.000000,1.000000,1.000000,1.000000,1.000000,1.000000,0.482800,0.483800,0.482400,0.482100,0.481600,0.481600,0.481600,0.481300,0.481100,0.480200,0.480100,0.480100,0.480000,0.480200,0.481300,0.480100,0.480000,0.479000,0.477400,0.476800,0.476700,0.476600,0.476600,0.476600,0.477600,0.477000,0.476700,0.476000,0.475600,0.475500,0.474400,0.475500,0.475500,0.475600,0.475800,0.474800,0.474800
0.554700,0.554800,0.555600,1.000000,1.000000,1.000000,1.000000,1.000000,1.000000,1.000000,0.555500,0.555600,1.000000,1.000000,1.000000,1.000000,1.000000,1.000000,1.000000,1.000000,1.000000,0.549500,0.549500,0.551000,0.551000,1.000000,1.000000,1.000000,1.000000,0.180100,0.180100,0.180100,0.180200,0.180200,0.180200,0.180000,0.180000,0.179900,0.179800,0.179800,0.179700,0.179600,0.179200,0.179000,0.179000,0.179000,0.179000,0.179000,0.179000,0.179000,0.179000,0.178900,0.178900,0.178800,0.178800,0.178300,0.178100,0.178000,0.178000,0.178000,0.178000,0.178000,0.177800,0.177700,0.177700,0.177800,0.177800,0.177800,0.177800,0.177700,0.177600,0.177500,0.177500,0.177400,0.177400,0.177400,0.177300,0.177200,0.177000,0.176900,0.176800,0.176700,0.176700,0.176600,0.176600,0.176500,0.176500,0.176500,0.176500,0.176500,0.176400,0.176400,0.176200,0.176100,0.176000,0.175900,0.175900,0.175900,0.175900,0.175800,0.175800,0.175500,0.175400,0.175300,0.175100,0.174900,0.174700,0.174600,0.174600,0.174600,0.174600,0.174500,0.174500,0.174400,0.174400,0.174300,0.174300,0.174200,0.174200,0.174100,0.174000,0.173900,0.173900,0.173800,0.173800,0.173600,0.173600,0.173400,0.173300,0.173200,0.173100,0.173100,0.172900,0.172800,0.172800,0.172600,0.172600,0.172600,0.172500,0.172500,0.172500,0.172600,0.172500,0.172400,0.172300,0.172200,0.172100,0.172000,0.172000,0.171900,0.171900,0.171900,0.171900,0.171900,0.171900,0.171800,0.171600,0.171200,0.171000,0.171000,0.170900,0.170800,0.170800,0.170900,0.170900,0.170800,0.170800,0.170600,0.170400,0.170300,0.170200,0.170100,0.170100,0.170200,0.170200,0.170300,0.170300,0.170300,1.000000,0.485400,0.485400,0.485400,0.485400,0.485400,0.483400,0.483200,0.482600,0.482600,1.000000,1.000000,1.000000,1.000000,1.000000,1.000000,1.000000,1.000000,1.000000,1.000000,1.000000,1.000000,1.000000,1.000000,1.000000,0.366800,1.000000,1.000000,1.000000,1.000000,1.000000,1.000000,1.000000,1.000000,1.000000,1.000000,1.000000,1.000000,1.000000,1.000000,1.000000,0.483600,0.484700,0.483100,0.482500,0.481300,0.481400,0.481500,0.481400,0.481200,0.480200,0.480100,0.480100,0.480100,0.480300,0.481300,0.481300,0.480100,0.478900,0.477400,0.476700,0.476600,0.476600,0.476500,0.476500,0.477000,0.476500,0.476200,0.476000,0.475600,0.475600,0.475400,0.475500,0.475500,0.475600,0.475800,0.474800,0.474800
0.554800,0.555600,1.000000,1.000000,1.000000,1.000000,1.000000,1.000000,0.556600,0.556700,0.555600,0.555600,0.554600,1.000000,0.554600,1.000000,1.000000,1.000000,1.000000,1.000000,1.000000,0.556900,0.556700,0.556600,0.556600,1.000000,1.000000,1.000000,1.000000,0.180200,0.180200,0.180200,0.180200,0.180200,0.180200,0.180100,0.180000,0.179800,0.179700,0.179700,0.179600,0.179500,0.179300,0.179200,0.179200,0.179100,0.179100,0.179100,0.179100,0.179100,0.179100,0.179100,0.179000,0.179000,0.178900,0.178700,0.178500,0.178000,0.178000,0.178000,0.178000,0.178000,0.177800,0.177800,0.177700,0.177700,0.177800,0.177800,0.177700,0.177600,0.177500,0.177400,0.177400,0.177400,0.177400,0.177400,0.177300,0.177200,0.177000,0.176900,0.176800,0.176800,0.176700,0.176600,0.176500,0.176400,0.176400,0.176400,0.176400,0.176500,0.176400,0.176300,0.176100,0.176000,0.175900,0.175900,0.175900,0.175900,0.176000,0.175900,0.175700,0.175400,0.175300,0.175200,0.175100,0.174900,0.174700,0.174700,0.174600,0.174600,0.174600,0.174600,0.174500,0.174400,0.174300,0.174300,0.174200,0.174200,0.174200,0.174100,0.174000,0.174000,0.173900,0.173800,0.173800,0.173600,0.173500,0.173300,0.173200,0.173200,0.173000,0.173000,0.172800,0.172800,0.172700,0.172600,0.172600,0.172500,0.172500,0.172500,0.172500,0.172600,0.172500,0.172500,0.172300,0.172100,0.172000,0.172000,0.171900,0.171900,0.171900,0.171800,0.171800,0.171700,0.171700,0.171600,0.171300,0.171100,0.170900,0.170800,0.170800,0.170700,0.170700,0.170800,0.170800,0.170800,0.170800,0.170700,0.170400,0.170300,0.170100,0.170100,0.170100,0.170100,0.170200,0.170200,0.170300,0.170300,1.000000,0.485400,0.485400,0.485400,0.485400,0.485300,0.484300,0.483000,0.482800,0.482700,1.000000,1.000000,1.000000,1.000000,1.000000,1.000000,1.000000,1.000000,1.000000,1.000000,1.000000,1.000000,1.000000,0.366700,0.366800,0.366800,1.000000,1.000000,1.000000,1.000000,1.000000,1.000000,1.000000,1.000000,1.000000,1.000000,1.000000,1.000000,1.000000,1.000000,1.000000,0.483200,0.484300,0.482900,0.482900,0.481200,0.481200,0.481300,0.481400,0.481400,0.480700,0.480200,0.480200,0.480200,0.480300,0.480300,0.481300,0.480100,0.478800,0.477100,0.476700,0.476600,0.476500,0.476400,0.476400,0.476400,0.476200,0.476200,0.476000,0.475800,0.475600,0.475500,0.475500,0.475600,0.475600,0.475700,0.474900,0.473900
0.557300,0.555700,1.000000,1.000000,1.000000,1.000000,1.000000,1.000000,0.556600,0.556700,0.558000,0.555800,0.554500,0.554500,0.554500,1.000000,1.000000,1.000000,1.000000,0.552300,0.557000,0.557900,0.557900,0.557800,0.556600,1.000000,1.000000,1.000000,1.000000,0.180300,0.180300,0.180300,0.180300,0.180300,0.180200,0.180200,0.180000,0.179700,0.179700,0.179600,0.179500,0.179500,0.179400,0.179400,0.179400,0.179300,0.179300,0.179200,0.179200,0.179100,0.179100,0.179100,0.179100,0.179000,0.179000,0.178700,0.178600,0.178100,0.178000,0.178000,0.178000,0.178000,0.177800,0.177800,0.177700,0.177700,0.177700,0.177700,0.177600,0.177500,0.177300,0.177200,0.177200,0.177200,0.177300,0.177300,0.177200,0.177200,0.177000,0.176900,0.176800,0.176800,0.176700,0.176600,0.176500,0.176300,0.176300,0.176300,0.176400,0.176400,0.176300,0.176200,0.176000,0.175900,0.175800,0.175900,0.175900,0.175900,0.175900,0.175900,0.175400,0.175200,0.175200,0.175200,0.175100,0.175000,0.174800,0.174700,0.174700,0.174700,0.174700,0.174600,0.174400,0.174400,0.174300,0.174200,0.174100,0.174100,0.174100,0.174000,0.173900,0.173900,0.173800,0.173800,0.173700,0.173600,0.173500,0.173200,0.173100,0.173000,0.172900,0.172900,0.172800,0.172700,0.172700,0.172600,0.172600,0.172500,0.172500,0.172500,0.172500,0.172600,0.172500,0.172500,0.171700,0.171700,0.171800,0.171800,0.171800,0.171900,0.171900,0.171800,0.171800,0.171600,0.171600,0.171500,0.171200,0.171100,0.170900,0.170800,0.170700,0.170700,0.170700,0.170700,0.170800,0.170800,0.170800,0.170700,0.170400,0.170300,0.170200,0.170100,0.170100,0.170100,0.170200,0.170200,0.170300,0.170300,1.000000,0.485100,0.485300,0.485300,0.485300,0.484000,0.482800,0.482800,0.482700,0.482700,1.000000,1.000000,1.000000,1.000000,1.000000,1.000000,1.000000,1.000000,1.000000,1.000000,1.000000,1.000000,1.000000,0.366700,0.366800,0.366800,0.366900,1.000000,1.000000,1.000000,1.000000,1.000000,1.000000,1.000000,1.000000,1.000000,1.000000,1.000000,1.000000,1.000000,0.479700,0.479700,0.481600,0.483000,0.482900,0.480900,0.480800,0.480600,0.480500,0.481400,0.481500,0.480200,0.480200,0.480200,0.480200,0.480200,0.480100,0.478300,0.477700,0.476700,0.476600,0.476600,0.476500,0.476300,0.476100,0.476000,0.476100,0.476100,0.476000,0.475800,0.475700,0.475600,0.475600,0.475600,0.475600,0.475600,0.474000,0.473900
0.559400,0.559400,1.000000,0.554700,0.554800,0.554800,0.554000,0.553600,0.555000,0.556500,0.556100,0.554500,0.552600,0.552800,1.000000,1.000000,1.000000,1.000000,1.000000,1.000000,0.557000,0.557900,0.557900,0.557800,1.000000,1.000000,1.000000,1.000000,1.000000,1.000000,0.180400,0.180400,0.180400,0.180300,0.180200,0.180200,0.180000,0.179700,0.179600,0.179600,0.179500,0.179500,0.179400,0.179400,0.179400,0.179400,0.179400,0.179300,0.179300,0.179200,0.179200,0.179200,0.179100,0.179000,0.178900,0.178700,0.178600,0.178200,0.178100,0.178100,0.178000,0.178000,0.177800,0.177800,0.177700,0.177700,0.177700,0.177700,0.177600,0.177400,0.177200,0.177000,0.177000,0.177000,0.177200,0.177200,0.177200,0.177100,0.177000,0.176900,0.176800,0.176700,0.176600,0.176300,0.176200,0.176200,0.176200,0.176200,0.176200,0.176200,0.176200,0.176100,0.176000,0.175900,0.175800,0.175800,0.175800,0.175800,0.175800,0.175600,0.175200,0.175100,0.175100,0.175100,0.175000,0.175000,0.174800,0.174800,0.174700,0.174700,0.174700,0.174500,0.174400,0.174300,0.174200,0.174200,0.174100,0.174100,0.174000,0.174000,0.173900,0.173900,0.173800,0.173700,0.173600,0.173500,0.173400,0.173200,0.173100,0.173000,0.172900,0.172900,0.172800,0.172700,0.172600,0.172600,0.172600,0.172500,0.172500,0.172600,0.172600,0.172600,0.172500,0.172500,0.171600,0.171600,0.171700,0.171700,0.171800,0.171800,0.171800,0.171700,0.171600,0.171500,0.171400,0.171300,0.171000,0.171000,0.170800,0.170800,0.170700,0.170600,0.170600,0.170600,0.170700,0.170700,0.170700,0.170600,0.170400,0.170300,0.170200,0.170200,0.170200,0.170200,0.170200,0.170200,0.170100,0.170100,1.000000,0.484700,0.484700,0.484200,0.484000,0.483800,0.482800,0.482800,0.482700,0.482700,1.000000,1.000000,1.000000,1.000000,1.000000,1.000000,1.000000,1.000000,1.000000,1.000000,1.000000,1.000000,0.366700,0.366800,0.366800,1.000000,1.000000,1.000000,1.000000,1.000000,1.000000,1.000000,1.000000,1.000000,1.000000,1.000000,1.000000,1.000000,1.000000,1.000000,1.000000,0.481200,0.482000,0.483000,0.483000,0.480700,0.480600,0.480500,0.480300,0.481500,0.481500,0.481500,0.481500,0.481500,0.480200,0.480100,0.478400,0.478400,0.478100,0.476700,0.476700,0.476700,0.476600,0.476000,0.475800,0.475800,0.476000,0.476000,0.476000,0.475900,0.475800,0.475600,0.475500,0.475500,0.475400,0.475200,0.474100,0.474000
0.559400,0.560000,1.000000,0.556000,0.554700,0.553600,0.552200,0.552200,0.552200,1.000000,1.000000,0.552400,0.552600,0.552800,0.552800,1.000000,1.000000,0.552500,1.000000,0.555500,0.555500,0.555500,0.557000,0.557100,1.000000,1.000000,1.000000,1.000000,1.000000,1.000000,1.000000,0.180500,0.180400,0.180300,0.180200,0.180200,0.180000,0.179700,0.179700,0.179600,0.179500,0.179500,0.179500,0.179400,0.179400,0.179400,0.179400,0.179300,0.179300,0.179300,0.179200,0.179200,0.179000,0.179000,0.178900,0.178700,0.178600,0.178300,0.178200,0.178100,0.178000,0.178000,0.177800,0.177800,0.177800,0.177800,0.177800,0.177700,0.177500,0.177300,0.177200,0.177000,0.176900,0.176900,0.177000,0.177000,0.177100,0.177000,0.176900,0.176900,0.176700,0.176600,0.176500,0.176200,0.176200,0.176100,0.176100,0.176100,0.176100,0.176200,0.176100,0.176100,0.176000,0.175900,0.175800,0.175800,0.175800,0.175800,0.175800,0.175500,0.175100,0.175100,0.175100,0.175100,0.175000,0.175000,0.174900,0.174800,0.174800,0.174700,0.174700,0.174500,0.174400,0.174400,0.174200,0.174200,0.174100,0.174000,0.174000,0.174000,0.174000,0.173900,0.173700,0.173600,0.173600,0.173400,0.173400,0.173200,0.173100,0.173000,0.172900,0.172900,0.172700,0.172700,0.172600,0.172600,0.172600,0.172600,0.172600,0.172600,0.172600,0.172500,0.172500,0.171600,0.171600,0.171600,0.171600,0.171600,0.171700,0.171800,0.171800,0.171600,0.171600,0.171400,0.171300,0.171200,0.171000,0.170900,0.170800,0.170800,0.170700,0.170600,0.170600,0.170600,0.170600,0.170600,0.170600,0.170600,0.170400,0.170300,0.170200,0.170200,0.170200,0.170200,0.170200,0.170100,0.170100,0.170100,1.000000,0.484600,0.484600,0.484100,0.484000,0.483900,0.482800,0.482800,0.482700,0.482800,1.000000,1.000000,1.000000,1.000000,1.000000,1.000000,1.000000,1.000000,1.000000,1.000000,1.000000,1.000000,0.366800,1.000000,0.366900,1.000000,1.000000,1.000000,1.000000,1.000000,1.000000,1.000000,1.000000,1.000000,1.000000,1.000000,1.000000,1.000000,1.000000,1.000000,0.481900,0.482000,0.482000,0.482000,0.483000,0.482000,0.480500,0.480300,0.480200,0.480200,0.480100,0.481500,0.481500,0.481300,0.481100,0.479000,0.478500,0.478400,0.478300,0.478100,0.476700,0.476800,0.476800,0.476600,0.475800,0.475800,0.475800,0.475800,0.475900,0.476000,0.475900,0.475600,0.475500,0.475400,0.475300,0.475200,0.474400,0.474200
1.000000,1.000000,1.000000,0.559100,0.556000,0.553500,0.552200,1.000000,0.552200,1.000000,1.000000,0.552300,0.552600,0.552800,0.552800,1.000000,1.000000,0.552500,0.555000,0.555500,0.555500,0.555500,0.553400,0.553400,1.000000,1.000000,1.000000,1.000000,1.000000,1.000000,1.000000,0.180500,0.180400,0.180300,0.180200,0.180100,0.180000,0.179800,0.179700,0.179600,0.179600,0.179500,0.179500,0.179500,0.179400,0.179400,0.179300,0.179300,0.179300,0.179200,0.179200,0.179100,0.179000,0.178900,0.178800,0.178600,0.178500,0.178300,0.178200,0.178100,0.178000,0.178000,0.177900,0.177800,0.177800,0.177800,0.177800,0.177700,0.177500,0.177300,0.177200,0.177000,0.176900,0.176900,0.176900,0.177000,0.177000,0.177000,0.176900,0.176900,0.176700,0.176500,0.176400,0.176200,0.176200,0.176100,0.176100,0.176100,0.176100,0.176100,0.176100,0.176000,0.176000,0.175900,0.175800,0.175800,0.175800,0.175700,0.175700,0.175400,0.175100,0.175000,0.175000,0.175000,0.175000,0.175000,0.174900,0.174800,0.174800,0.174700,0.174700,0.174500,0.174400,0.174400,0.174200,0.174200,0.174100,0.174000,0.174000,0.174000,0.174000,0.173900,0.173700,0.173600,0.173600,0.173400,0.173400,0.173200,0.173100,0.173000,0.172900,0.172900,0.172700,0.172700,0.172600,0.172600,0.172600,0.172600,0.172600,0.172600,0.172600,0.172500,0.172400,0.171600,0.171600,0.171600,0.171600,0.171600,0.171700,0.171700,0.171700,0.171600,0.171500,0.171300,0.171200,0.171100,0.171000,0.170900,0.170800,0.170800,0.170700,0.170600,0.170600,0.170600,0.170600,0.170600,0.170500,0.170500,0.170300,0.170300,0.170200,0.170200,0.170200,0.170200,0.170100,0.170000,0.170000,0.170000,1.000000,0.484600,0.484600,0.484400,0.484100,0.483900,0.482800,0.482800,0.482800,0.482800,1.000000,1.000000,1.000000,1.000000,1.000000,1.000000,1.000000,1.000000,1.000000,1.000000,1.000000,1.000000,0.366900,1.000000,1.000000,1.000000,1.000000,1.000000,1.000000,1.000000,1.000000,1.000000,1.000000,1.000000,1.000000,1.000000,1.000000,0.353500,0.353500,1.000000,1.000000,0.482000,0.482000,0.481900,0.483000,0.483000,0.481900,0.480300,0.480200,0.480100,0.480100,0.480200,0.481300,0.481000,0.480100,0.478900,0.478600,0.478600,0.478400,0.478200,0.476800,0.476800,0.476800,0.476900,0.475800,0.475700,0.475800,0.475800,0.475900,0.476000,0.476000,0.475500,0.475400,0.475400,0.475200,0.475200,0.474800,0.474200
1.000000,0.559300,0.560000,0.557600,0.557600,0.554600,0.552300,0.552200,1.000000,1.000000,1.000000,0.554800,0.554800,0.554700,0.552900,1.000000,1.000000,1.000000,0.555600,0.555600,0.555600,0.553400,0.551800,0.551800,0.551800,1.000000,1.000000,1.000000,1.000000,1.000000,0.180600,0.180500,0.180400,0.180300,0.180200,0.180100,0.180000,0.179800,0.179700,0.179700,0.179600,0.179600,0.179500,0.179500,0.179400,0.179300,0.179300,0.179200,0.179200,0.179200,0.179100,0.179100,0.179000,0.178900,0.178800,0.178600,0.178500,0.178300,0.178200,0.178100,0.178000,0.178000,0.177900,0.177800,0.177800,0.177800,0.177800,0.177800,0.177600,0.177400,0.177300,0.177000,0.177000,0.176900,0.176900,0.176900,0.177000,0.177000,0.176900,0.176800,0.176600,0.176300,0.176200,0.176200,0.176100,0.176100,0.176000,0.176000,0.175900,0.175900,0.175900,0.176000,0.176000,0.175900,0.175800,0.175800,0.175700,0.175700,0.175600,0.175300,0.175100,0.175000,0.175000,0.175000,0.175000,0.174900,0.174800,0.174800,0.174700,0.174600,0.174600,0.174500,0.174400,0.174400,0.174200,0.174200,0.174100,0.174000,0.174000,0.174000,0.173900,0.173900,0.173700,0.173600,0.173600,0.173400,0.173400,0.173300,0.173200,0.173100,0.173000,0.172900,0.172700,0.172600,0.172600,0.172600,0.172600,0.172600,0.172600,0.172600,0.172500,0.172500,0.172300,0.171700,0.171600,0.171600,0.171600,0.171600,0.171600,0.171600,0.171500,0.171400,0.171400,0.171200,0.171100,0.171000,0.170900,0.170800,0.170800,0.170700,0.170700,0.170600,0.170600,0.170600,0.170500,0.170400,0.170300,0.170200,0.170200,0.170200,0.170200,0.170200,0.170100,0.170000,0.170000,0.169800,0.169800,0.169800,1.000000,0.484600,0.484500,0.484400,0.484200,0.484100,0.482800,0.482800,0.482800,0.482800,0.482900,1.000000,1.000000,1.000000,1.000000,1.000000,1.000000,1.000000,1.000000,1.000000,1.000000,1.000000,1.000000,1.000000,1.000000,1.000000,1.000000,1.000000,1.000000,1.000000,1.000000,1.000000,1.000000,1.000000,1.000000,1.000000,1.000000,1.000000,0.352800,1.000000,1.000000,1.000000,0.481900,0.481900,0.481900,0.483000,0.482900,0.482500,0.480100,0.480100,0.480100,0.480200,0.480200,0.480200,0.479200,0.479000,0.479000,0.479100,0.479200,0.479000,0.478000,0.477800,0.477400,0.477300,0.477200,0.475800,0.475800,0.475800,0.475800,0.475900,0.474900,0.474300,0.474200,0.474200,0.474200,0.475200,0.475200,0.475200
1.000000,1.000000,1.000000,0.557500,1.000000,1.000000,1.000000,1.000000,1.000000,1.000000,0.553500,0.553500,0.554600,0.554600,0.553900,0.553700,0.553400,0.553600,0.555500,1.000000,0.555700,0.551800,0.551800,0.551800,0.551800,1.000000,1.000000,1.000000,1.000000,1.000000,0.180700,0.180500,0.180400,0.180300,0.180200,0.180100,0.180000,0.179800,0.179800,0.179700,0.179600,0.179600,0.179500,0.179500,0.179400,0.179200,0.179100,0.179000,0.178900,0.178900,0.178900,0.179000,0.178900,0.178800,0.178800,0.178400,0.178200,0.178100,0.178100,0.178000,0.178000,0.178000,0.177900,0.177800,0.177800,0.177800,0.177800,0.177700,0.177600,0.177500,0.177300,0.177100,0.177000,0.176900,0.176900,0.177000,0.177000,0.177000,0.177000,0.176900,0.176500,0.176300,0.176200,0.176200,0.176100,0.176100,0.176000,0.175900,0.175900,0.175900,0.175900,0.175900,0.175900,0.175900,0.175800,0.175700,0.175700,0.175600,0.175600,0.175300,0.175200,0.175000,0.175000,0.175000,0.175000,0.174900,0.174800,0.174800,0.174700,0.174600,0.174500,0.174300,0.174300,0.174300,0.174200,0.174100,0.174000,0.174000,0.174000,0.173900,0.173900,0.173800,0.173800,0.173600,0.173600,0.173400,0.173400,0.173300,0.173200,0.173200,0.173000,0.172900,0.172700,0.172600,0.172600,0.172600,0.172600,0.172600,0.172600,0.172600,0.172500,0.172400,0.172100,0.171800,0.171600,0.171600,0.171600,0.171500,0.171500,0.171500,0.171400,0.171400,0.171300,0.171200,0.171100,0.171000,0.170900,0.170800,0.170800,0.170700,0.170700,0.170700,0.170600,0.170500,0.170500,0.170300,0.170200,0.170100,0.170100,0.170100,0.170100,0.170100,0.170100,0.170000,0.169900,0.169800,0.169800,0.169800,0.169800,1.000000,0.484500,0.484400,0.484300,0.484200,0.482900,0.482900,0.482900,0.482800,1.000000,1.000000,1.000000,0.481000,1.000000,1.000000,1.000000,1.000000,1.000000,1.000000,1.000000,1.000000,1.000000,1.000000,1.000000,0.481900,1.000000,1.000000,1.000000,1.000000,1.000000,1.000000,1.000000,1.000000,0.480800,1.000000,1.000000,1.000000,0.352600,1.000000,0.482000,0.482000,0.481700,0.481600,0.481600,0.482900,0.482700,0.482100,0.481000,0.480100,0.480100,0.480200,0.480200,0.480200,0.479300,0.479100,0.479200,0.479300,0.479400,0.478100,0.477900,0.477800,0.477600,0.477500,0.477400,0.475800,0.475700,0.475300,0.475000,0.474900,0.474700,0.474400,0.474200,0.474200,0.474200,0.474200,0.475200,0.475300
1.000000,1.000000,0.557400,0.556300,1.000000,1.000000,1.000000,1.000000,1.000000,1.000000,1.000000,1.000000,0.554500,0.554400,0.554500,0.553700,1.000000,1.000000,1.000000,1.000000,1.000000,1.000000,0.551800,0.551800,0.551800,1.000000,1.000000,1.000000,1.000000,1.000000,0.180700,0.180500,0.180400,0.180300,0.180200,0.180100,0.180000,0.179800,0.179800,0.179700,0.179600,0.179600,0.179500,0.179400,0.179300,0.179200,0.179000,0.178900,0.178800,0.178800,0.178800,0.178900,0.178900,0.178800,0.178800,0.178200,0.178200,0.178000,0.178000,0.178000,0.178000,0.178000,0.177900,0.177800,0.177800,0.177800,0.177700,0.177700,0.177500,0.177500,0.177400,0.177300,0.177200,0.177000,0.177000,0.177000,0.177000,0.177000,0.177000,0.176900,0.176400,0.176200,0.176200,0.176200,0.176100,0.176000,0.176000,0.175900,0.175800,0.175800,0.175800,0.175800,0.175800,0.175700,0.175600,0.175600,0.175600,0.175600,0.175600,0.175400,0.175200,0.175100,0.175000,0.175000,0.174900,0.174800,0.174700,0.174600,0.174600,0.174400,0.174300,0.174200,0.174200,0.174200,0.174100,0.174000,0.174000,0.174000,0.173900,0.173900,0.173800,0.173800,0.173700,0.173700,0.173600,0.173400,0.173400,0.173300,0.173200,0.173200,0.173000,0.172900,0.172800,0.172700,0.172600,0.172600,0.172600,0.172600,0.172600,0.172600,0.172500,0.172400,0.172100,0.171900,0.171600,0.171600,0.171500,0.171400,0.171400,0.171400,0.171300,0.171300,0.171200,0.171100,0.171000,0.171000,0.170800,0.170800,0.170700,0.170700,0.170700,0.170600,0.170600,0.170500,0.170500,0.170300,0.170200,0.170100,0.170000,0.170000,0.170000,0.170000,0.170000,0.169900,0.169800,0.169800,0.169800,0.169800,0.169800,0.483200,0.484400,0.483200,0.483200,0.483100,0.483000,0.482900,0.482800,0.482100,1.000000,1.000000,0.481800,0.481000,0.480900,0.481000,0.480800,0.481400,0.481400,0.481600,1.000000,0.484400,0.484400,1.000000,0.481900,0.481800,0.481700,0.481600,1.000000,0.479300,0.479300,0.479400,0.479700,0.480700,0.480700,1.000000,1.000000,0.352600,0.352600,1.000000,0.482000,0.482000,0.481500,0.481500,0.481500,0.482700,0.482000,0.481800,0.481700,0.480100,0.480100,0.480200,0.480300,0.480400,0.480400,0.480000,0.479700,0.479600,0.479500,0.478000,0.477900,0.477800,0.477600,0.477600,0.477500,0.475500,0.475300,0.475000,0.474900,0.474800,0.474600,0.474400,0.474300,0.474200,0.474200,0.474300,0.474300,0.474400
1.000000,0.555900,0.556100,0.556100,1.000000,1.000000,1.000000,1.000000,1.000000,1.000000,1.000000,1.000000,0.552000,0.552000,0.553200,0.553100,0.553000,0.553200,1.000000,1.000000,1.000000,1.000000,0.551900,1.000000,0.551800,1.000000,0.546600,0.546600,0.545900,1.000000,0.180600,0.180500,0.180400,0.180300,0.180200,0.180100,0.179900,0.179800,0.179700,0.179600,0.179500,0.179500,0.179400,0.179300,0.179300,0.179000,0.178900,0.178700,0.178700,0.178600,0.178600,0.178700,0.178800,0.178800,0.178800,0.178200,0.178100,0.178000,0.178000,0.178000,0.178000,0.177900,0.177800,0.177800,0.177700,0.177700,0.177600,0.177600,0.177500,0.177500,0.177500,0.177400,0.177300,0.177100,0.177100,0.177000,0.177100,0.177100,0.177100,0.177000,0.176400,0.176300,0.176200,0.176200,0.176200,0.176000,0.176000,0.175900,0.175800,0.175700,0.175700,0.175800,0.175700,0.175600,0.175600,0.175500,0.175600,0.175600,0.175600,0.175400,0.175300,0.175200,0.175100,0.175000,0.174900,0.174800,0.174700,0.174600,0.174500,0.174300,0.174200,0.174100,0.174000,0.174000,0.174000,0.173900,0.173900,0.173900,0.173900,0.173800,0.173700,0.173600,0.173600,0.173600,0.173500,0.173400,0.173400,0.173300,0.173200,0.173100,0.173000,0.172900,0.172800,0.172700,0.172700,0.172600,0.172600,0.172700,0.172600,0.172600,0.172400,0.172300,0.172000,0.171900,0.171600,0.171600,0.171500,0.171400,0.171400,0.171300,0.171300,0.171300,0.171200,0.171100,0.171000,0.171000,0.170800,0.170800,0.170700,0.170700,0.170600,0.170600,0.170600,0.170500,0.170500,0.170300,0.170200,0.170100,0.170000,0.170000,0.170000,0.170000,0.170000,0.169900,0.169800,0.169800,0.169800,0.169800,0.169800,1.000000,0.483200,0.483200,0.483200,0.483200,0.483000,0.482900,0.482900,0.482900,1.000000,1.000000,0.481700,0.481700,0.480800,0.480600,0.480500,0.480500,1.000000,0.481400,0.484400,0.484400,1.000000,1.000000,0.481800,0.481800,0.479500,0.479700,1.000000,0.479300,0.479300,0.479400,1.000000,0.480700,0.479600,0.479500,1.000000,0.354200,0.352600,0.353900,1.000000,0.481900,0.481400,0.481400,0.481400,0.482000,0.481900,0.481800,0.481700,0.481600,0.480100,0.480200,0.480400,0.480600,0.480500,0.480100,0.479800,0.479600,0.479300,0.479200,0.477700,0.477700,0.476300,0.476300,0.476200,0.475400,0.475300,0.475100,0.475000,0.474800,0.474500,0.474400,0.474300,0.474300,0.474400,0.474400,0.474400,0.474400
1.000000,0.554800,0.553900,0.553900,0.550200,0.548500,0.548500,0.548700,1.000000,1.000000,1.000000,1.000000,1.000000,1.000000,0.551900,0.551900,0.552900,0.553000,1.000000,0.553600,1.000000,1.000000,1.000000,1.000000,1.000000,1.000000,0.545400,0.545400,0.544700,1.000000,0.180400,0.180300,0.180300,0.180200,0.180100,0.180100,0.179900,0.179800,0.179700,0.179600,0.179500,0.179500,0.179400,0.179300,0.179200,0.179000,0.178900,0.178700,0.178600,0.178600,0.178600,0.178700,0.178700,0.178800,0.178800,0.178800,0.178600,0.178000,0.178000,0.178000,0.177900,0.177900,0.177800,0.177800,0.177700,0.177600,0.177600,0.177600,0.177600,0.177600,0.177500,0.177400,0.177200,0.177000,0.177000,0.177100,0.177100,0.177100,0.177100,0.177100,0.176700,0.176300,0.176300,0.176200,0.176200,0.176100,0.176000,0.175900,0.175700,0.175600,0.175600,0.175500,0.175500,0.175400,0.175400,0.175500,0.175600,0.175600,0.175600,0.175400,0.175200,0.175100,0.175000,0.175000,0.174800,0.174700,0.174600,0.174500,0.174400,0.174300,0.174200,0.174000,0.174000,0.174000,0.173900,0.173900,0.173900,0.173800,0.173800,0.173700,0.173700,0.173600,0.173500,0.173500,0.173400,0.173400,0.173400,0.173200,0.173200,0.173100,0.173000,0.172900,0.172800,0.172800,0.172800,0.172700,0.172700,0.172700,0.172700,0.172600,0.172400,0.172300,0.171900,0.171800,0.171600,0.171500,0.171500,0.171400,0.171400,0.171300,0.171300,0.171200,0.171200,0.171100,0.171000,0.170900,0.170800,0.170800,0.170700,0.170600,0.170600,0.170500,0.170500,0.170500,0.170500,0.170400,0.170300,0.170200,0.170100,0.170000,0.170000,0.170000,0.169900,0.169900,0.169900,0.169900,0.169900,0.170000,0.170100,1.000000,0.483200,0.483200,0.483200,0.483200,0.483000,0.483000,0.482900,1.000000,1.000000,0.481800,0.481700,0.480500,0.480400,0.480400,0.478600,1.000000,0.478600,1.000000,0.482100,0.485200,1.000000,1.000000,1.000000,0.479500,1.000000,0.479500,1.000000,1.000000,1.000000,1.000000,1.000000,1.000000,1.000000,1.000000,0.355300,0.354300,0.354000,0.354900,1.000000,1.000000,1.000000,1.000000,1.000000,1.000000,1.000000,1.000000,1.000000,1.000000,1.000000,1.000000,1.000000,1.000000,0.480700,0.480100,0.479800,0.479600,0.479000,0.479000,0.477600,0.477600,0.476300,0.476200,0.476200,0.475500,0.475400,0.475200,0.475000,0.474900,0.474400,0.474400,0.474300,0.474300,0.474400,0.474400,0.474400,0.474400
1.000000,1.000000,0.553900,0.553900,0.550200,0.548500,0.548500,1.000000,1.000000,1.000000,1.000000,1.000000,1.000000,0.552000,0.551700,0.551600,0.552500,0.552900,0.553100,0.551600,1.000000,0.551800,1.000000,0.552400,1.000000,1.000000,0.544800,0.544800,0.544700,1.000000,0.180300,0.180300,0.180200,0.180200,0.180100,0.180100,0.179900,0.179800,0.179700,0.179600,0.179500,0.179500,0.179400,0.179300,0.179200,0.179000,0.178900,0.178700,0.178600,0.178500,0.178500,0.178600,0.178700,0.178800,0.178800,0.178800,0.178700,0.178000,0.178000,0.178000,0.177900,0.177900,0.177800,0.177700,0.177600,0.177600,0.177600,0.177600,0.177600,0.177600,0.177500,0.177300,0.177000,0.177000,0.177000,0.177100,0.177100,0.177200,0.177200,0.177100,0.177000,0.176500,0.176400,0.176300,0.176200,0.176100,0.176000,0.175900,0.175600,0.175600,0.175400,0.175400,0.175400,0.175400,0.175400,0.175400,0.175600,0.175600,0.175500,0.175200,0.175200,0.175100,0.175000,0.174900,0.174800,0.174700,0.174600,0.174600,0.174400,0.174300,0.174200,0.174000,0.174000,0.173900,0.173900,0.173900,0.173800,0.173800,0.173800,0.173700,0.173600,0.173500,0.173500,0.173500,0.173400,0.173400,0.173300,0.173200,0.173100,0.173000,0.172900,0.172900,0.172800,0.172800,0.172800,0.172700,0.172700,0.172700,0.172700,0.172600,0.172400,0.172200,0.171900,0.171800,0.171600,0.171500,0.171500,0.171400,0.171300,0.171300,0.171300,0.171200,0.171100,0.171100,0.171000,0.170900,0.170800,0.170800,0.170700,0.170600,0.170500,0.170500,0.170500,0.170500,0.170500,0.170400,0.170300,0.170300,0.170100,0.170100,0.170000,0.170000,0.170000,0.169900,0.169900,0.170000,0.170100,0.170100,0.170200,1.000000,0.483200,0.483300,0.483300,0.483200,0.483100,0.483000,0.482900,0.482900,1.000000,0.481800,0.481800,0.480500,0.480400,0.480400,0.478600,1.000000,0.466300,0.466300,1.000000,1.000000,1.000000,1.000000,1.000000,1.000000,1.000000,1.000000,1.000000,1.000000,1.000000,1.000000,1.000000,1.000000,1.000000,1.000000,0.355300,0.355100,0.355000,0.355100,0.359700,1.000000,0.362200,1.000000,1.000000,1.000000,1.000000,1.000000,1.000000,1.000000,1.000000,1.000000,1.000000,1.000000,1.000000,1.000000,1.000000,0.478700,0.478800,0.478900,0.477500,0.477500,0.476300,0.476200,0.476100,0.475800,0.475500,0.475400,0.475400,0.475200,0.474400,0.474400,0.474300,0.474300,0.474400,0.474400,0.474400,0.474400
1.000000,1.000000,1.000000,0.550100,0.548500,1.000000,1.000000,1.000000,1.000000,1.000000,1.000000,0.552200,1.000000,0.552200,0.551600,0.551600,0.551400,0.551400,0.552900,0.550800,0.550300,0.551700,0.551700,1.000000,0.552500,0.552500,0.544800,0.544800,0.544800,1.000000,0.180200,0.180200,0.180200,0.180200,0.180100,0.180000,0.179900,0.179800,0.179700,0.179600,0.179500,0.179500,0.179400,0.179300,0.179200,0.179000,0.178800,0.178600,0.178500,0.178500,0.178500,0.178500,0.178500,0.178600,0.178700,0.178700,0.178600,0.178400,0.178000,0.178000,0.177800,0.177800,0.177600,0.177600,0.177500,0.177500,0.177500,0.177500,0.177600,0.177500,0.177500,0.177100,0.177000,0.176900,0.177000,0.177000,0.177100,0.177200,0.177200,0.177200,0.177000,0.176800,0.176600,0.176400,0.176400,0.176200,0.176000,0.175900,0.175600,0.175500,0.175400,0.175400,0.175400,0.175400,0.175400,0.175400,0.175500,0.175500,0.175400,0.175100,0.175100,0.175000,0.174900,0.174900,0.174800,0.174700,0.174600,0.174600,0.174500,0.174300,0.174200,0.174000,0.174000,0.173900,0.173800,0.173800,0.173800,0.173800,0.173700,0.173600,0.173600,0.173500,0.173400,0.173400,0.173400,0.173300,0.173200,0.173100,0.173000,0.173000,0.172900,0.172800,0.172800,0.172700,0.172700,0.172700,0.172700,0.172700,0.172600,0.172600,0.172400,0.172200,0.171900,0.171800,0.171600,0.171500,0.171500,0.171400,0.171300,0.171300,0.171200,0.171200,0.171100,0.171100,0.171000,0.171000,0.170800,0.170800,0.170600,0.170600,0.170500,0.170500,0.170400,0.170400,0.170400,0.170400,0.170400,0.170300,0.170200,0.170100,0.170000,0.170000,0.170000,0.170000,0.170000,0.170000,0.170100,0.170200,0.170200,1.000000,0.483300,0.483300,0.483300,0.483300,0.483100,0.483000,0.482900,0.482900,1.000000,1.000000,1.000000,1.000000,1.000000,1.000000,1.000000,1.000000,1.000000,1.000000,1.000000,1.000000,1.000000,1.000000,1.000000,1.000000,1.000000,1.000000,0.359400,0.358300,1.000000,0.356800,0.356200,0.355800,0.355500,0.355400,0.355300,0.355200,0.355200,0.356700,0.359700,0.359700,0.362300,0.363600,1.000000,1.000000,1.000000,1.000000,1.000000,1.000000,1.000000,1.000000,1.000000,1.000000,1.000000,1.000000,1.000000,1.000000,0.478700,0.478800,0.477400,0.477400,0.477400,0.477300,0.477200,0.477200,0.477100,0.477100,0.477000,0.477000,0.475100,0.474300,0.474300,0.474300,0.474400,0.474400,0.474400,0.474400
0.556000,1.000000,1.000000,1.000000,1.000000,1.000000,1.000000,1.000000,1.000000,1.000000,1.000000,0.552500,1.000000,0.552600,0.551500,1.000000,1.000000,1.000000,1.000000,0.550800,1.000000,1.000000,0.550200,0.551900,0.552000,0.551800,0.546000,0.544900,0.544800,1.000000,0.180200,0.180200,0.180200,0.180200,0.180100,0.180000,0.179800,0.179800,0.179700,0.179600,0.179600,0.179600,0.179500,0.179400,0.179300,0.179000,0.178800,0.178600,0.178500,0.178500,0.178400,0.178400,0.178400,0.178500,0.178500,0.178500,0.178600,0.178500,0.178500,0.178100,0.177800,0.177700,0.177600,0.177500,0.177500,0.177500,0.177500,0.177500,0.177600,0.177500,0.177400,0.177000,0.176900,0.176800,0.176900,0.176900,0.177000,0.177100,0.177100,0.177100,0.176800,0.176700,0.176600,0.176500,0.176400,0.176200,0.176100,0.175900,0.175500,0.175400,0.175300,0.175300,0.175300,0.175300,0.175400,0.175400,0.175400,0.175300,0.175100,0.175000,0.175000,0.174900,0.174900,0.174900,0.174800,0.174700,0.174700,0.174600,0.174500,0.174300,0.174200,0.174000,0.174000,0.173900,0.173800,0.173800,0.173800,0.173700,0.173700,0.173600,0.173500,0.173400,0.173400,0.173400,0.173300,0.173300,0.173200,0.173100,0.173000,0.172900,0.172800,0.172800,0.172700,0.172700,0.172600,0.172600,0.172600,0.172600,0.172600,0.172400,0.172300,0.172200,0.172000,0.171900,0.171600,0.171600,0.171500,0.171400,0.171300,0.171200,0.171200,0.171100,0.171100,0.171000,0.171000,0.171000,0.170900,0.170800,0.170600,0.170600,0.170500,0.170400,0.170400,0.170400,0.170400,0.170400,0.170300,0.170300,0.170200,0.170100,0.170000,0.170000,0.170000,0.170000,0.170000,0.170000,0.170100,0.170100,0.170300,1.000000,0.483300,0.483300,0.483300,0.483200,0.483100,0.483000,0.482900,0.482900,0.482900,1.000000,1.000000,1.000000,1.000000,1.000000,1.000000,1.000000,1.000000,1.000000,0.372400,0.370800,0.369200,0.369100,1.000000,1.000000,1.000000,0.363500,0.359300,0.358400,0.358300,0.357400,0.356000,0.355900,0.355500,0.355400,0.355300,0.355200,0.355200,0.357800,0.359700,0.359700,0.359700,0.362400,0.363700,0.363800,0.363800,0.363800,0.363900,0.363900,0.366200,0.368000,0.368000,1.000000,1.000000,1.000000,1.000000,1.000000,0.477900,0.477700,0.475600,0.475600,0.475700,0.477200,0.477200,0.477100,0.477100,0.477000,0.477000,0.477000,0.475100,0.474400,0.474300,0.474300,0.474300,1.000000,0.474400,0.474400
1.000000,1.000000,1.000000,1.000000,1.000000,1.000000,1.000000,1.000000,1.000000,1.000000,1.000000,1.000000,1.000000,1.000000,0.552700,0.552800,0.552800,0.552800,1.000000,0.549600,1.000000,0.550200,0.550200,0.550200,0.550200,0.550100,0.546200,0.546200,0.546100,1.000000,1.000000,0.180300,0.180200,0.180200,0.180100,0.180000,0.179800,0.179700,0.179700,0.179600,0.179600,0.179600,0.179500,0.179400,0.179300,0.178900,0.178600,0.178500,0.178400,0.178400,0.178300,0.178300,0.178200,0.178200,0.178200,0.178300,0.178400,0.178500,0.178600,0.178600,0.177700,0.177600,0.177500,0.177500,0.177500,0.177500,0.177500,0.177600,0.177500,0.177400,0.177300,0.177100,0.176900,0.176800,0.176800,0.176900,0.176900,0.177000,0.177000,0.177000,0.176700,0.176600,0.176500,0.176500,0.176400,0.176200,0.176100,0.175900,0.175500,0.175400,0.175300,0.175300,0.175300,0.175400,0.175400,0.175300,0.175200,0.175200,0.175100,0.175000,0.175000,0.174900,0.174900,0.174900,0.174800,0.174800,0.174700,0.174600,0.174500,0.174300,0.174200,0.174000,0.174000,0.173900,0.173800,0.173800,0.173800,0.173700,0.173600,0.173500,0.173400,0.173400,0.173400,0.173300,0.173300,0.173200,0.173100,0.173100,0.172900,0.172800,0.172700,0.172700,0.172600,0.172600,0.172600,0.172500,0.172500,0.172400,0.172400,0.172300,0.172200,0.172100,0.172000,0.171900,0.171700,0.171600,0.171500,0.171400,0.171300,0.171200,0.171200,0.171100,0.171000,0.171000,0.171000,0.171000,0.170900,0.170800,0.170700,0.170600,0.170500,0.170400,0.170400,0.170400,0.170400,0.170300,0.170300,0.170300,0.170200,0.170100,0.170000,0.170000,0.170000,0.169900,0.169900,0.169900,0.169800,0.169800,0.169800,1.000000,0.483400,0.483400,0.483300,0.483200,0.483100,0.483000,0.483000,0.483000,1.000000,1.000000,1.000000,0.390400,0.390300,1.000000,1.000000,1.000000,0.372600,0.372500,0.376000,0.376000,0.376200,0.376200,1.000000,1.000000,1.000000,0.371900,0.367800,0.362900,0.358400,0.358400,0.358400,0.358300,0.356300,0.355400,0.355300,0.355100,0.355200,0.357300,0.359700,0.359600,0.359700,0.362100,0.362500,0.363800,0.363800,0.363800,0.363900,0.364000,0.368000,0.373500,1.000000,1.000000,1.000000,1.000000,1.000000,1.000000,0.475500,0.475500,0.475500,0.475600,0.475600,0.475700,0.477100,0.477000,0.477000,0.477000,0.477000,0.477000,0.475000,0.475000,0.475000,0.475000,0.475300,0.475300,0.475200,0.474400
1.000000,1.000000,1.000000,1.000000,1.000000,0.555200,0.556100,0.556800,0.556900,1.000000,1.000000,1.000000,1.000000,1.000000,0.552800,1.000000,0.552900,0.549600,0.548200,1.000000,1.000000,0.550200,0.550200,0.550200,0.550200,0.549200,0.547300,0.547200,0.546200,1.000000,1.000000,0.180300,0.180300,0.180200,0.180000,0.180000,0.179800,0.179700,0.179600,0.179600,0.179600,0.179600,0.179500,0.179400,0.179400,0.178800,0.178600,0.178500,0.178400,0.178400,0.178300,0.178300,0.178200,0.178200,0.178200,0.178200,0.178400,0.178500,0.178600,0.178700,0.178600,0.177600,0.177500,0.177500,0.177500,0.177500,0.177600,0.177500,0.177400,0.177300,0.177200,0.177000,0.176900,0.176800,0.176800,0.176800,0.176800,0.176900,0.176800,0.176700,0.176500,0.176400,0.176300,0.176200,0.176100,0.176000,0.175900,0.175800,0.175500,0.175400,0.175300,0.175300,0.175400,0.175400,0.175300,0.175200,0.175100,0.175100,0.175000,0.175000,0.175000,0.175000,0.174900,0.174900,0.174800,0.174700,0.174700,0.174600,0.174500,0.174400,0.174300,0.174100,0.174000,0.173900,0.173900,0.173800,0.173800,0.173700,0.173600,0.173500,0.173400,0.173300,0.173300,0.173300,0.173300,0.173200,0.173100,0.173000,0.172900,0.172800,0.172600,0.172600,0.172600,0.172600,0.172500,0.172500,0.172400,0.172300,0.172300,0.172200,0.172100,0.172100,0.172000,0.172000,0.171800,0.171700,0.171600,0.171400,0.171300,0.171200,0.171200,0.171100,0.171000,0.171000,0.171000,0.170900,0.170900,0.170800,0.170700,0.170600,0.170500,0.170400,0.170400,0.170300,0.170300,0.170300,0.170200,0.170200,0.170100,0.170100,0.170000,0.170000,0.170000,0.169900,0.169800,0.169800,0.169800,0.169800,0.169800,1.000000,0.483400,0.483400,0.483300,0.483200,0.483100,0.483100,0.483000,0.482900,1.000000,1.000000,1.000000,0.391900,1.000000,1.000000,1.000000,1.000000,1.000000,1.000000,1.000000,0.381700,0.381600,1.000000,1.000000,1.000000,1.000000,1.000000,0.371900,0.367800,0.367800,1.000000,1.000000,0.358300,0.358100,0.356400,0.354200,0.354000,0.354100,0.356400,0.357200,0.357200,0.357300,0.359800,0.362300,0.363800,0.363800,0.363900,1.000000,0.366300,1.000000,1.000000,1.000000,1.000000,1.000000,1.000000,1.000000,1.000000,1.000000,0.475400,0.475400,0.475500,0.475600,0.475700,0.477000,0.476900,0.476900,0.476900,0.475100,0.475000,0.474900,0.474900,0.474900,0.475000,0.475200,0.475000,0.474600,0.474400
1.000000,1.000000,1.000000,1.000000,0.555100,0.556200,0.556300,0.557000,0.557000,1.000000,1.000000,1.000000,1.000000,1.000000,0.552800,0.552800,0.552900,0.547900,1.000000,1.000000,1.000000,0.550200,0.550200,0.550200,0.549400,0.548900,0.547300,0.547300,0.546200,1.000000,1.000000,0.180300,0.180200,0.180200,0.180000,0.180000,0.179700,0.179600,0.179600,0.179500,0.179500,0.179500,0.179400,0.179400,0.179300,0.178900,0.178600,0.178400,0.178400,0.178400,0.178300,0.178200,0.178200,0.178100,0.178100,0.178100,0.178300,0.178400,0.178600,0.178700,0.178600,0.178000,0.177500,0.177500,0.177500,0.177500,0.177500,0.177400,0.177300,0.177200,0.177100,0.177000,0.176900,0.176800,0.176800,0.176800,0.176800,0.176800,0.176700,0.176600,0.176400,0.176300,0.176200,0.176100,0.176100,0.176000,0.175900,0.175800,0.175500,0.175400,0.175400,0.175400,0.175400,0.175400,0.175300,0.175200,0.175100,0.175000,0.175000,0.175000,0.175000,0.175000,0.175000,0.174900,0.174800,0.174700,0.174600,0.174600,0.174500,0.174400,0.174300,0.174100,0.174000,0.174000,0.173900,0.173800,0.173800,0.173700,0.173600,0.173400,0.173400,0.173300,0.173300,0.173300,0.173200,0.173200,0.173100,0.173000,0.172800,0.172800,0.172700,0.172600,0.172500,0.172500,0.172500,0.172400,0.172400,0.172300,0.172200,0.172200,0.172100,0.172100,0.172000,0.172000,0.171800,0.171800,0.171600,0.171400,0.171400,0.171200,0.171200,0.171100,0.171000,0.171000,0.171000,0.170900,0.170900,0.170800,0.170700,0.170600,0.170400,0.170400,0.170400,0.170300,0.170300,0.170300,0.170200,0.170200,0.170100,0.170100,0.170000,0.170000,0.170000,0.169800,0.169800,0.169700,0.169700,0.169700,0.169700,1.000000,1.000000,0.483400,0.483300,0.483200,0.483100,0.483100,0.483000,1.000000,1.000000,1.000000,1.000000,1.000000,1.000000,1.000000,1.000000,1.000000,1.000000,1.000000,1.000000,1.000000,1.000000,1.000000,1.000000,1.000000,1.000000,1.000000,0.374300,1.000000,0.367800,1.000000,1.000000,1.000000,0.358000,0.354400,0.353700,0.353700,0.354100,0.356700,1.000000,0.357200,0.357300,0.359900,0.362400,0.363800,1.000000,1.000000,1.000000,1.000000,1.000000,1.000000,1.000000,1.000000,1.000000,1.000000,1.000000,0.477400,0.477400,0.475300,0.475300,0.475300,0.475500,0.475600,0.476900,0.476900,0.476900,0.475000,0.474900,0.474800,0.474700,0.474800,0.474800,0.474900,0.473600,0.473400,0.473400,0.473800
1.000000,1.000000,1.000000,1.000000,0.556200,0.556300,0.556500,0.557000,0.557000,1.000000,0.553200,1.000000,1.000000,0.551600,0.552600,0.552600,0.547500,0.547500,1.000000,0.550200,0.550200,0.550200,0.551600,1.000000,1.000000,1.000000,1.000000,1.000000,1.000000,1.000000,1.000000,0.180200,0.180200,0.180100,0.180000,0.179900,0.179600,0.179500,0.179400,0.179300,0.179300,0.179300,0.179300,0.179300,0.179200,0.179100,0.178600,0.178500,0.178400,0.178300,0.178200,0.178200,0.178100,0.178100,0.178000,0.178000,0.178100,0.178300,0.178600,0.178600,0.178500,0.178300,0.177600,0.177500,0.177500,0.177400,0.177400,0.177300,0.177200,0.177100,0.177000,0.176900,0.176900,0.176800,0.176800,0.176800,0.176800,0.176800,0.176700,0.176600,0.176400,0.176300,0.176200,0.176100,0.176100,0.176000,0.175900,0.175800,0.175600,0.175600,0.175500,0.175500,0.175400,0.175400,0.175300,0.175100,0.175000,0.175000,0.175000,0.175000,0.175100,0.175100,0.174900,0.174800,0.174700,0.174600,0.174500,0.174400,0.174400,0.174300,0.174300,0.174100,0.174000,0.174000,0.173900,0.173800,0.173800,0.173700,0.173600,0.173300,0.173300,0.173200,0.173200,0.173200,0.173200,0.173200,0.173100,0.173000,0.172800,0.172700,0.172600,0.172500,0.172500,0.172500,0.172500,0.172400,0.172400,0.172300,0.172200,0.172200,0.172100,0.172100,0.172000,0.172000,0.171900,0.171900,0.171800,0.171600,0.171500,0.171300,0.171200,0.171200,0.171100,0.171000,0.171000,0.170900,0.170800,0.170700,0.170600,0.170500,0.170500,0.170400,0.170300,0.170300,0.170300,0.170200,0.170200,0.170200,0.170100,0.170100,0.170000,0.170000,0.169900,0.169800,0.169700,0.169700,0.169700,0.169700,0.169700,1.000000,0.484400,0.484400,0.484400,0.483200,0.483200,0.483100,1.000000,1.000000,1.000000,0.480300,0.480200,0.480100,0.480000,0.480000,0.479800,0.477700,0.477700,0.477800,0.477400,1.000000,1.000000,0.479000,0.478900,0.478800,1.000000,1.000000,1.000000,1.000000,0.480700,0.480700,0.480700,0.479600,1.000000,0.353600,0.353600,0.353600,1.000000,1.000000,1.000000,1.000000,1.000000,1.000000,0.480700,0.480800,0.480800,0.480800,0.480600,0.479600,1.000000,1.000000,1.000000,1.000000,1.000000,1.000000,1.000000,1.000000,0.477500,0.475200,0.475200,0.475200,0.475200,0.475400,0.475900,0.475200,0.475000,0.474900,0.474800,0.474700,0.474600,0.474500,0.474000,0.473800,0.473600,0.473400,0.473300,0.473300
1.000000,0.553900,1.000000,1.000000,1.000000,0.556400,0.556800,1.000000,0.554500,0.553200,0.553200,0.553200,1.000000,0.551600,0.552500,0.552600,0.546300,1.000000,0.550400,0.550300,0.550200,0.550200,0.550200,1.000000,1.000000,1.000000,1.000000,1.000000,1.000000,1.000000,0.180200,0.180200,0.180100,0.180100,0.180000,0.179800,0.179600,0.179500,0.179400,0.179300,0.179200,0.179200,0.179200,0.179200,0.179200,0.179100,0.179000,0.178500,0.178400,0.178400,0.178200,0.178200,0.178100,0.178100,0.178000,0.178000,0.178100,0.178200,0.178600,0.178600,0.178400,0.178200,0.177600,0.177500,0.177400,0.177200,0.177200,0.177200,0.177100,0.177000,0.176900,0.176800,0.176700,0.176700,0.176700,0.176800,0.176800,0.176800,0.176700,0.176600,0.176400,0.176300,0.176200,0.176200,0.176200,0.176100,0.176000,0.175900,0.175700,0.175700,0.175600,0.175600,0.175500,0.175400,0.175300,0.175000,0.175000,0.174900,0.174900,0.175000,0.175000,0.175000,0.175000,0.174800,0.174600,0.174500,0.174400,0.174400,0.174400,0.174300,0.174200,0.174100,0.174000,0.174000,0.173900,0.173800,0.173700,0.173600,0.173600,0.173300,0.173200,0.173200,0.173200,0.173200,0.173200,0.173200,0.173100,0.173000,0.172800,0.172700,0.172600,0.172500,0.172500,0.172400,0.172400,0.172400,0.172400,0.172200,0.172200,0.172100,0.172000,0.172000,0.172000,0.172000,0.171900,0.171900,0.171800,0.171600,0.171500,0.171400,0.171300,0.171200,0.171100,0.171100,0.171000,0.170900,0.170800,0.170600,0.170600,0.170500,0.170400,0.170400,0.170300,0.170200,0.170200,0.170100,0.170100,0.170100,0.170100,0.170100,0.170000,0.170000,0.169900,0.169800,0.169700,0.169600,0.169600,0.169700,0.169700,1.000000,0.484400,0.484400,0.483200,0.483200,0.483200,0.483100,1.000000,1.000000,0.480800,0.480300,0.480200,0.480100,0.480000,0.479900,0.479700,0.478100,0.477800,0.477800,0.477800,0.477800,0.479400,0.478900,0.478800,0.478800,1.000000,1.000000,1.000000,1.000000,0.480700,0.480700,0.480700,0.480700,1.000000,0.352400,0.352400,0.352300,1.000000,0.480200,0.480300,0.480200,0.480300,0.480600,0.480600,0.481600,0.481600,0.481500,1.000000,0.479600,1.000000,1.000000,1.000000,1.000000,1.000000,1.000000,0.477500,0.477500,0.477400,0.475200,0.475200,0.475100,0.475200,0.475300,0.475400,0.475200,0.475000,0.474600,0.474600,0.474500,0.474400,0.474200,0.473900,0.473700,0.473600,0.473300,0.473200,0.473100
0.553900,0.553900,1.000000,1.000000,1.000000,0.552900,0.552500,1.000000,0.553000,0.552400,0.553100,1.000000,1.000000,1.000000,0.552500,1.000000,1.000000,1.000000,0.550400,0.550300,0.550200,0.550200,0.550200,1.000000,1.000000,1.000000,1.000000,1.000000,1.000000,1.000000,0.180200,0.180200,0.180100,0.180000,0.179800,0.179800,0.179500,0.179400,0.179300,0.179200,0.179200,0.179100,0.179000,0.179000,0.179000,0.178900,0.178800,0.178500,0.178400,0.178400,0.178300,0.178200,0.178100,0.178100,0.178000,0.178000,0.178000,0.178000,0.178100,0.178200,0.178000,0.178000,0.177600,0.177400,0.177200,0.177200,0.177200,0.177100,0.177100,0.177000,0.176900,0.176800,0.176700,0.176700,0.176700,0.176800,0.176800,0.176800,0.176800,0.176700,0.176600,0.176500,0.176400,0.176400,0.176300,0.176200,0.176100,0.176000,0.175800,0.175800,0.175700,0.175600,0.175600,0.175400,0.175300,0.175000,0.174900,0.174900,0.174900,0.175000,0.175000,0.174900,0.174900,0.174700,0.174500,0.174500,0.174400,0.174400,0.174300,0.174200,0.174200,0.174100,0.174000,0.173900,0.173800,0.173800,0.173700,0.173600,0.173500,0.173300,0.173200,0.173200,0.173200,0.173200,0.173200,0.173200,0.173100,0.173000,0.172900,0.172800,0.172700,0.172500,0.172500,0.172400,0.172400,0.172400,0.172300,0.172200,0.172100,0.172100,0.172000,0.171900,0.171900,0.171900,0.171900,0.171900,0.171800,0.171700,0.171600,0.171500,0.171400,0.171300,0.171100,0.171100,0.170900,0.170900,0.170800,0.170600,0.170600,0.170500,0.170400,0.170400,0.170300,0.170100,0.170100,0.170100,0.170100,0.170100,0.170100,0.170000,0.170000,0.170000,0.169900,0.169800,0.169700,0.169600,0.169600,0.169700,0.169700,1.000000,0.483100,0.483100,0.483100,0.483100,0.483100,0.483100,1.000000,1.000000,0.481600,0.480300,0.480200,0.480100,0.480000,0.479900,0.479100,0.478000,0.477900,0.477800,0.480100,0.480100,0.480000,0.478800,0.478800,0.478700,0.478700,1.000000,1.000000,0.481600,0.481600,0.480700,0.480700,0.480700,1.000000,0.352300,0.352300,1.000000,0.480600,0.480500,0.480400,0.480400,0.480400,0.480600,0.480700,0.480800,0.480700,0.480600,0.479700,0.479500,0.478300,1.000000,1.000000,1.000000,1.000000,1.000000,0.477400,0.477400,0.477300,0.477200,0.477000,0.476000,0.475300,0.475400,0.475400,0.475400,0.474700,0.474500,0.474500,0.474400,0.474300,0.474200,0.473900,0.473700,0.473600,0.473400,0.473200,0.472900
0.554000,1.000000,1.000000,1.000000,1.000000,0.552500,1.000000,1.000000,1.000000,1.000000,0.550200,0.549000,1.000000,1.000000,0.554100,1.000000,1.000000,1.000000,1.000000,1.000000,1.000000,1.000000,1.000000,1.000000,1.000000,1.000000,1.000000,1.000000,1.000000,1.000000,0.180400,0.180200,0.180100,0.180000,0.179800,0.179700,0.179500,0.179400,0.179300,0.179200,0.179200,0.179100,0.179000,0.179000,0.178900,0.178800,0.178700,0.178500,0.178500,0.178400,0.178300,0.178300,0.178200,0.178200,0.178100,0.178000,0.178000,0.178000,0.178000,0.178000,0.178000,0.177900,0.177500,0.177300,0.177100,0.177100,0.177100,0.177000,0.177000,0.176900,0.176900,0.176800,0.176700,0.176700,0.176700,0.176700,0.176800,0.176800,0.176800,0.176700,0.176600,0.176500,0.176500,0.176400,0.176300,0.176100,0.176000,0.175900,0.175900,0.175800,0.175700,0.175700,0.175600,0.175400,0.175200,0.175000,0.175000,0.174900,0.174900,0.174900,0.174900,0.174900,0.174800,0.174700,0.174500,0.174400,0.174400,0.174300,0.174300,0.174200,0.174100,0.174000,0.174000,0.173900,0.173800,0.173800,0.173700,0.173600,0.173500,0.173300,0.173300,0.173300,0.173300,0.173300,0.173200,0.173100,0.173000,0.173000,0.172900,0.172800,0.172800,0.172600,0.172600,0.172400,0.172400,0.172300,0.172200,0.172100,0.172000,0.172000,0.171800,0.171800,0.171700,0.171700,0.171800,0.171800,0.171800,0.171700,0.171700,0.171500,0.171400,0.171300,0.171100,0.171000,0.170900,0.170800,0.170800,0.170600,0.170600,0.170500,0.170500,0.170400,0.170300,0.170200,0.170000,0.169900,0.169900,0.170000,0.170000,0.170000,0.170000,0.170000,0.169900,0.169800,0.169700,0.169600,0.169600,0.169700,0.169700,1.000000,0.483000,0.483000,0.483000,0.483000,0.482900,0.482900,1.000000,0.481600,0.481500,0.481500,0.480200,0.480100,0.480000,0.480000,0.478200,0.478100,0.478000,0.479800,0.480600,0.481100,0.480100,0.478800,0.478700,0.478700,0.478700,1.000000,1.000000,1.000000,0.481600,0.480800,0.480700,0.480700,1.000000,0.352100,0.352100,1.000000,0.480600,0.480600,0.480600,0.480600,0.480600,0.480700,0.480700,0.480800,0.480700,0.480000,0.479600,0.478900,0.478400,0.478200,1.000000,1.000000,1.000000,1.000000,0.477300,0.477300,0.477200,0.477200,0.477100,0.476100,0.476000,0.475500,0.475500,0.475500,0.475500,0.474400,0.474400,0.474400,0.474200,0.474200,0.473900,0.473700,0.473600,0.473400,0.472600,0.472500
1.000000,1.000000,1.000000,1.000000,1.000000,0.552500,0.552500,1.000000,1.000000,1.000000,0.550200,0.550200,1.000000,1.000000,0.554100,1.000000,1.000000,1.000000,1.000000,1.000000,1.000000,1.000000,1.000000,1.000000,1.000000,1.000000,1.000000,1.000000,1.000000,1.000000,0.180400,0.180200,0.180100,0.180000,0.179800,0.179700,0.179500,0.179400,0.179300,0.179200,0.179200,0.179100,0.179000,0.178900,0.178800,0.178700,0.178600,0.178500,0.178500,0.178400,0.178400,0.178400,0.178200,0.178200,0.178200,0.178000,0.178000,0.178000,0.178000,0.178000,0.177900,0.177800,0.177500,0.177300,0.177100,0.177100,0.177000,0.177000,0.177000,0.176900,0.176800,0.176800,0.176700,0.176700,0.176700,0.176700,0.176800,0.176800,0.176800,0.176800,0.176600,0.176500,0.176400,0.176300,0.176200,0.176100,0.176000,0.175900,0.175800,0.175800,0.175700,0.175600,0.175600,0.175400,0.175200,0.175100,0.175000,0.174900,0.174900,0.174900,0.174900,0.174800,0.174800,0.174700,0.174600,0.174400,0.174400,0.174300,0.174300,0.174200,0.174100,0.174000,0.173900,0.173900,0.173800,0.173800,0.173700,0.173600,0.173500,0.173400,0.173300,0.173300,0.173300,0.173300,0.173200,0.173100,0.173000,0.173000,0.172900,0.172900,0.172800,0.172700,0.172600,0.172400,0.172300,0.172300,0.172100,0.172000,0.172000,0.171900,0.171700,0.171700,0.171600,0.171600,0.171700,0.171700,0.171800,0.171700,0.171700,0.171500,0.171400,0.171200,0.171000,0.171000,0.170900,0.170800,0.170800,0.170700,0.170600,0.170500,0.170500,0.170400,0.170300,0.170200,0.170000,0.169900,0.169900,0.169900,0.169900,0.170000,0.170000,0.169900,0.169900,0.169800,0.169700,0.169600,0.169700,0.169700,0.169700,1.000000,0.482800,0.482800,0.482800,0.482800,0.482800,0.481800,1.000000,0.481600,0.481500,0.481500,0.481500,0.480100,0.480000,0.480000,0.478300,0.478200,0.478100,0.480500,0.481400,0.481300,0.481000,0.478800,0.478800,0.479900,0.479900,1.000000,1.000000,1.000000,0.481600,0.480800,0.480800,0.480700,1.000000,0.352000,0.352000,1.000000,0.480100,0.480600,0.480600,0.480600,0.480700,0.480700,0.480700,0.480700,0.480100,0.479500,0.479200,0.478400,0.478300,0.477600,0.477000,1.000000,1.000000,1.000000,0.477200,0.477200,0.477200,0.477200,0.477100,0.476200,0.476100,0.475900,0.475600,0.475600,0.475600,0.474400,0.474400,0.474300,0.474200,0.474200,0.473900,0.473800,0.473600,0.472400,0.472400,0.472400
1.000000,1.000000,1.000000,1.000000,1.000000,0.552500,0.552500,0.554000,0.554500,0.553300,0.550200,0.550200,0.550200,1.000000,0.554100,0.550500,1.000000,1.000000,1.000000,1.000000,1.000000,1.000000,1.000000,1.000000,1.000000,1.000000,1.000000,1.000000,1.000000,1.000000,0.180500,0.180300,0.180100,0.180000,0.179700,0.179600,0.179400,0.179300,0.179300,0.179200,0.179200,0.179100,0.179000,0.178900,0.178800,0.178700,0.178600,0.178500,0.178500,0.178500,0.178400,0.178400,0.178300,0.178200,0.178200,0.178000,0.178000,0.177900,0.177900,0.177900,0.177900,0.177800,0.177600,0.177400,0.177100,0.177100,0.177000,0.177000,0.176900,0.176900,0.176800,0.176800,0.176700,0.176700,0.176700,0.176700,0.176700,0.176800,0.176800,0.176700,0.176600,0.176400,0.176300,0.176200,0.176200,0.176000,0.175900,0.175800,0.175800,0.175700,0.175700,0.175600,0.175500,0.175400,0.175200,0.175100,0.175000,0.175000,0.174900,0.174900,0.174800,0.174700,0.174700,0.174600,0.174600,0.174500,0.174300,0.174200,0.174200,0.174100,0.174000,0.174000,0.173900,0.173900,0.173800,0.173800,0.173600,0.173600,0.173500,0.173400,0.173400,0.173300,0.173300,0.173300,0.173100,0.173100,0.172900,0.172900,0.172900,0.172800,0.172800,0.172700,0.172600,0.172400,0.172300,0.172200,0.172100,0.172000,0.171900,0.171800,0.171700,0.171600,0.171600,0.171600,0.171600,0.171600,0.171700,0.171700,0.171600,0.171500,0.171300,0.171200,0.171000,0.170900,0.170800,0.170800,0.170800,0.170700,0.170600,0.170600,0.170500,0.170500,0.170400,0.170300,0.170000,0.169900,0.169900,0.169900,0.169900,0.169900,0.169800,0.169800,0.169800,0.169700,0.169700,0.169600,0.169700,0.169700,0.169700,1.000000,0.482700,0.482700,0.482600,0.482600,0.482400,1.000000,1.000000,0.481600,0.481400,0.481400,0.481400,0.481400,0.480000,0.479900,0.478900,0.478900,0.479000,0.480500,0.481400,0.481400,0.481200,0.479900,0.479900,0.479900,0.479900,0.479900,1.000000,1.000000,0.480800,0.480800,0.480800,0.479700,1.000000,0.351900,0.351900,1.000000,0.479200,0.479600,0.479700,0.479700,0.480700,0.480700,0.480700,0.480700,0.478600,0.478400,0.478300,0.478300,0.478200,0.478200,0.477000,0.476700,1.000000,1.000000,1.000000,0.477200,0.477200,0.477200,0.477200,0.476100,0.476200,0.476200,0.476100,0.476000,0.475600,0.475600,0.475400,0.475300,0.474200,0.474200,0.474000,0.473800,0.473700,0.472400,0.472400,0.472400
1.000000,1.000000,1.000000,1.000000,0.553000,0.553000,0.553100,0.554500,0.554600,0.554600,0.553100,0.553100,1.000000,1.000000,1.000000,0.550200,1.000000,1.000000,1.000000,1.000000,1.000000,1.000000,1.000000,1.000000,1.000000,1.000000,0.550600,1.000000,1.000000,1.000000,0.180500,0.180300,0.180200,0.180000,0.179700,0.179600,0.179400,0.179300,0.179300,0.179200,0.179200,0.179100,0.178900,0.178800,0.178800,0.178700,0.178600,0.178600,0.178500,0.178500,0.178500,0.178400,0.178300,0.178200,0.178200,0.178000,0.178000,0.177900,0.177900,0.177900,0.177900,0.177800,0.177600,0.177400,0.177200,0.177100,0.177000,0.176900,0.176900,0.176800,0.176800,0.176800,0.176700,0.176600,0.176600,0.176600,0.176600,0.176700,0.176700,0.176700,0.176500,0.176400,0.176200,0.176100,0.176000,0.175900,0.175800,0.175700,0.175700,0.175600,0.175600,0.175500,0.175400,0.175300,0.175200,0.175100,0.175000,0.175000,0.174900,0.174800,0.174700,0.174700,0.174700,0.174600,0.174600,0.174500,0.174300,0.174200,0.174100,0.174000,0.174000,0.174000,0.173900,0.173900,0.173800,0.173800,0.173600,0.173600,0.173500,0.173400,0.173400,0.173300,0.173300,0.173300,0.173100,0.173000,0.172900,0.172900,0.172800,0.172800,0.172800,0.172600,0.172500,0.172300,0.172100,0.172100,0.171900,0.171900,0.171800,0.171700,0.171600,0.171600,0.171500,0.171600,0.171600,0.171600,0.171600,0.171600,0.171600,0.171300,0.171200,0.171100,0.171000,0.170900,0.170800,0.170800,0.170800,0.170700,0.170600,0.170600,0.170500,0.170500,0.170400,0.170300,0.170000,0.169900,0.169900,0.169900,0.169900,0.169900,0.169800,0.169800,0.169700,0.169700,0.169600,0.169600,0.169600,0.169700,0.169700,1.000000,0.482400,0.482400,0.482400,0.482300,0.482200,1.000000,1.000000,0.480100,0.480100,0.481200,0.481300,0.481300,0.479700,0.479000,0.478900,0.479000,0.479000,0.480400,0.480500,0.481400,0.480900,0.479900,0.479900,0.479900,0.479900,1.000000,1.000000,1.000000,1.000000,0.479800,0.479800,0.479700,1.000000,0.351800,0.351800,1.000000,0.479200,0.479400,0.479500,0.479600,0.480700,0.480700,0.480700,0.480600,0.478400,0.478300,0.478300,0.478200,0.478200,0.478200,0.477000,0.476900,1.000000,1.000000,1.000000,0.476200,0.476200,0.476000,0.476000,0.476000,0.476100,0.476200,0.476200,0.476100,0.475700,0.475600,0.475500,0.474600,0.474100,0.474100,0.474000,0.474000,0.473800,0.472400,0.472400,0.472300
1.000000,1.000000,1.000000,1.000000,0.552900,0.553000,0.553000,0.553200,0.553400,0.554600,0.552100,0.552100,0.552100,1.000000,1.000000,0.550000,0.548800,1.000000,1.000000,1.000000,1.000000,1.000000,1.000000,1.000000,1.000000,1.000000,0.549200,0.549100,1.000000,0.546400,0.180500,0.180300,0.180200,0.180000,0.179600,0.179400,0.179300,0.179200,0.179200,0.179200,0.179100,0.179000,0.178900,0.178800,0.178700,0.178600,0.178600,0.178500,0.178400,0.178400,0.178400,0.178400,0.178200,0.178200,0.178100,0.178000,0.178000,0.177900,0.177900,0.177900,0.177900,0.177800,0.177600,0.177500,0.177200,0.177100,0.177000,0.176900,0.176900,0.176800,0.176800,0.176800,0.176700,0.176600,0.176500,0.176500,0.176500,0.176600,0.176600,0.176600,0.176500,0.176300,0.176200,0.176000,0.175900,0.175800,0.175700,0.175700,0.175600,0.175600,0.175500,0.175400,0.175400,0.175200,0.175200,0.175000,0.175000,0.174900,0.174800,0.174800,0.174700,0.174700,0.174600,0.174600,0.174600,0.174500,0.174400,0.174200,0.174100,0.174000,0.174000,0.174000,0.174000,0.173900,0.173800,0.173700,0.173600,0.173500,0.173400,0.173400,0.173300,0.173300,0.173200,0.173200,0.173000,0.172900,0.172800,0.172800,0.172700,0.172700,0.172600,0.172500,0.172400,0.172200,0.172100,0.172000,0.171900,0.171800,0.171700,0.171700,0.171600,0.171600,0.171600,0.171600,0.171600,0.171600,0.171600,0.171600,0.171500,0.171300,0.171200,0.171100,0.171000,0.170900,0.170900,0.170800,0.170800,0.170700,0.170600,0.170600,0.170500,0.170500,0.170400,0.170300,0.170100,0.170000,0.170000,0.169900,0.169900,0.169800,0.169700,0.169700,0.169600,0.169500,0.169500,0.169500,0.169600,0.169700,0.169700,1.000000,0.482400,0.482300,0.482300,0.482200,0.482200,1.000000,1.000000,0.480100,0.480100,0.480200,0.481200,0.481200,0.479200,0.479100,0.479000,0.479000,0.479000,0.479300,0.479500,0.479600,0.479700,0.479800,0.479800,0.479700,0.479100,1.000000,1.000000,1.000000,1.000000,1.000000,0.479700,0.479700,1.000000,0.350400,0.350400,1.000000,0.478600,0.479100,0.479200,0.479400,0.479600,0.480000,0.480600,0.480600,0.478400,0.478200,0.478200,0.478200,0.478200,0.478200,0.477200,1.000000,1.000000,1.000000,1.000000,1.000000,0.476100,0.476000,0.475900,0.475900,0.476000,0.476100,0.476200,0.476200,0.475700,0.475500,0.475200,0.474200,0.473900,0.474100,0.474200,0.474600,0.474800,0.474800,0.474100,0.472400
1.000000,1.000000,1.000000,1.000000,1.000000,0.552900,0.551800,0.551900,0.552000,0.552300,0.550600,0.550600,0.550700,1.000000,1.000000,1.000000,1.000000,1.000000,1.000000,1.000000,1.000000,1.000000,1.000000,1.000000,0.549500,1.000000,0.547400,0.546500,0.546500,1.000000,0.180400,0.180300,0.180200,0.180000,0.179400,0.179400,0.179200,0.179200,0.179200,0.179100,0.179000,0.179000,0.178900,0.178700,0.178600,0.178600,0.178500,0.178300,0.178300,0.178300,0.178300,0.178300,0.178200,0.178100,0.178000,0.178000,0.177900,0.177900,0.177900,0.177900,0.177900,0.177800,0.177600,0.177400,0.177100,0.177000,0.176900,0.176800,0.176800,0.176800,0.176800,0.176800,0.176700,0.176600,0.176500,0.176500,0.176400,0.176400,0.176400,0.176500,0.176400,0.176200,0.176200,0.175900,0.175900,0.175700,0.175700,0.175600,0.175500,0.175500,0.175400,0.175400,0.175300,0.175200,0.175200,0.175100,0.175000,0.174900,0.174800,0.174700,0.174700,0.174700,0.174700,0.174700,0.174700,0.174500,0.174400,0.174300,0.174200,0.174100,0.174100,0.174100,0.174000,0.174000,0.173800,0.173700,0.173600,0.173500,0.173400,0.173300,0.173300,0.173200,0.173200,0.173100,0.173000,0.172900,0.172800,0.172700,0.172700,0.172600,0.172600,0.172400,0.172300,0.172100,0.172000,0.172000,0.171900,0.171800,0.171700,0.171700,0.171600,0.171600,0.171600,0.171600,0.171600,0.171600,0.171600,0.171500,0.171400,0.171200,0.171200,0.171100,0.171000,0.171000,0.170900,0.170800,0.170800,0.170600,0.170600,0.170500,0.170500,0.170400,0.170400,0.170300,0.170200,0.170100,0.170100,0.170000,0.170000,0.169800,0.169700,0.169600,0.169500,0.169400,0.169400,0.169500,0.169600,0.169600,0.169700,1.000000,1.000000,0.482200,0.482200,0.482200,0.482200,1.000000,1.000000,0.480000,0.480100,0.480100,0.481000,0.481000,0.479200,0.479100,0.479000,0.478900,0.479000,0.479400,0.479500,0.479600,0.479700,0.479700,0.479700,0.479600,0.479100,0.479000,1.000000,1.000000,1.000000,1.000000,1.000000,1.000000,1.000000,1.000000,1.000000,0.478500,0.478500,0.478700,0.479000,0.479000,0.478900,0.478900,0.480500,0.480500,0.480500,0.479800,0.478200,0.478200,0.478200,0.478200,0.477200,0.477200,0.477200,1.000000,1.000000,1.000000,1.000000,0.475800,0.475800,0.475700,0.475600,0.475700,0.475800,0.475300,0.473700,0.473700,0.473700,0.473600,0.473600,0.473500,0.474400,0.474700,0.474700,0.474800,0.474800,0.473500
1.000000,1.000000,1.000000,1.000000,1.000000,0.551000,0.549700,0.550000,0.550200,0.550500,0.550600,0.550600,0.550700,1.000000,1.000000,1.000000,0.549100,0.548000,1.000000,1.000000,1.000000,1.000000,1.000000,0.550200,0.550000,0.549300,0.546500,0.546500,0.546500,0.180400,0.179200,0.179200,0.179300,0.179300,0.179200,0.179200,0.179100,0.179000,0.179000,0.179000,0.178900,0.178800,0.178700,0.178500,0.178300,0.178100,0.178000,0.178000,0.178100,0.178100,0.178200,0.178200,0.178200,0.178100,0.178000,0.177900,0.177900,0.177900,0.177900,0.177900,0.177900,0.177800,0.177500,0.177300,0.176900,0.176900,0.176800,0.176800,0.176800,0.176800,0.176800,0.176800,0.176700,0.176700,0.176500,0.176400,0.176400,0.176300,0.176400,0.176400,0.176300,0.176200,0.176100,0.175900,0.175800,0.175700,0.175600,0.175600,0.175500,0.175500,0.175400,0.175400,0.175400,0.175200,0.175200,0.175100,0.175000,0.175000,0.174800,0.174800,0.174700,0.174700,0.174700,0.174700,0.174700,0.174500,0.174400,0.174300,0.174200,0.174100,0.174100,0.174100,0.174000,0.173900,0.173700,0.173600,0.173400,0.173400,0.173300,0.173200,0.173200,0.173200,0.173100,0.173100,0.172900,0.172900,0.172800,0.172700,0.172600,0.172600,0.172600,0.172400,0.172300,0.172100,0.172000,0.172000,0.171900,0.171800,0.171800,0.171800,0.171700,0.171700,0.171600,0.171700,0.171600,0.171600,0.171600,0.171400,0.171300,0.171200,0.171100,0.171100,0.171000,0.171000,0.170900,0.170900,0.170800,0.170600,0.170600,0.170500,0.170400,0.170400,0.170300,0.170300,0.170200,0.170100,0.170100,0.170000,0.170000,0.169800,0.169700,0.169600,0.169400,0.169400,0.169400,0.169400,0.169600,0.169600,0.169700,0.169800,1.000000,0.482200,0.482200,0.482200,1.000000,1.000000,1.000000,0.480000,0.480100,0.481000,0.481000,0.481000,0.479400,0.479000,0.478900,0.478800,0.478700,0.478700,0.479500,0.479600,0.479700,0.479600,0.479600,0.479400,0.479100,0.479000,0.479000,1.000000,1.000000,1.000000,1.000000,1.000000,1.000000,1.000000,0.478400,0.478400,0.478400,0.478600,0.478700,0.478800,0.478900,0.478900,0.478900,0.480400,0.480400,0.479900,0.478300,0.478300,0.478200,0.478100,0.477500,0.477400,0.477300,1.000000,1.000000,1.000000,1.000000,0.475700,0.475700,0.475600,0.475500,0.475500,0.475400,0.475200,0.473700,0.473700,0.473700,0.473600,0.473500,0.473400,0.474600,0.474700,0.474700,0.474800,0.473700,0.472300
1.000000,1.000000,1.000000,1.000000,1.000000,1.000000,1.000000,1.000000,0.550200,0.550400,0.550500,0.550600,0.550500,1.000000,1.000000,1.000000,0.547900,0.547900,1.000000,1.000000,1.000000,1.000000,1.000000,0.550300,0.550300,0.549200,0.547400,1.000000,1.000000,1.000000,0.179200,0.179200,0.179200,0.179200,0.179200,0.179200,0.179100,0.179000,0.179000,0.178900,0.178900,0.178800,0.178700,0.178500,0.178200,0.178000,0.178000,0.178000,0.178000,0.178100,0.178100,0.178200,0.178200,0.178100,0.178000,0.177900,0.177900,0.177900,0.177900,0.177900,0.177800,0.177700,0.177300,0.177100,0.176800,0.176800,0.176800,0.176700,0.176800,0.176800,0.176800,0.176800,0.176700,0.176700,0.176500,0.176400,0.176400,0.176200,0.176300,0.176300,0.176200,0.176200,0.176100,0.175900,0.175800,0.175700,0.175600,0.175600,0.175600,0.175500,0.175400,0.175400,0.175400,0.175300,0.175300,0.175200,0.175100,0.175000,0.174800,0.174800,0.174800,0.174800,0.174800,0.174800,0.174700,0.174500,0.174400,0.174300,0.174200,0.174200,0.174100,0.174000,0.173900,0.173800,0.173600,0.173600,0.173400,0.173400,0.173300,0.173200,0.173200,0.173200,0.173100,0.173100,0.172900,0.172900,0.172800,0.172800,0.172700,0.172600,0.172600,0.172400,0.172300,0.172100,0.172000,0.172000,0.171900,0.171900,0.171800,0.171800,0.171800,0.171700,0.171700,0.171700,0.171700,0.171600,0.171600,0.171400,0.171300,0.171200,0.171100,0.171100,0.171100,0.171000,0.171000,0.170900,0.170800,0.170600,0.170600,0.170400,0.170400,0.170400,0.170300,0.170200,0.170200,0.170100,0.170100,0.170000,0.170000,0.169800,0.169700,0.169600,0.169400,0.169400,0.169400,0.169400,0.169600,0.169700,0.169700,0.169800,1.000000,0.482100,0.482100,0.482100,1.000000,1.000000,1.000000,0.480100,0.481000,0.481000,0.481000,0.480200,0.479100,0.478900,0.478800,0.478700,0.478700,0.478700,0.479400,0.479600,0.479700,0.479600,0.479500,0.479300,0.479000,0.479000,0.479000,0.479200,1.000000,1.000000,1.000000,1.000000,1.000000,1.000000,0.478400,0.478400,0.478400,0.478500,0.478600,0.478700,0.478800,0.478900,0.478900,0.480300,0.480300,0.480200,0.478400,0.478300,0.478200,0.477900,0.477600,0.477500,0.477400,1.000000,1.000000,1.000000,1.000000,0.475600,0.475600,0.475400,0.475400,0.475300,0.475300,0.475200,0.473700,0.473700,0.473600,0.473500,0.473500,0.473300,0.473200,0.474700,0.474700,0.473600,0.473200,0.470900
1.000000,1.000000,1.000000,1.000000,1.000000,1.000000,1.000000,1.000000,0.549500,0.550400,0.550900,0.552000,0.552000,1.000000,1.000000,1.000000,0.547800,1.000000,1.000000,1.000000,1.000000,1.000000,1.000000,1.000000,0.550400,0.547500,1.000000,0.547400,1.000000,1.000000,0.179200,0.179200,0.179200,0.179200,0.179200,0.179200,0.179000,0.179000,0.179000,0.178900,0.178800,0.178700,0.178600,0.178400,0.178100,0.178000,0.178000,0.178000,0.178000,0.178100,0.178100,0.178200,0.178200,0.178200,0.178100,0.178000,0.177900,0.177800,0.177800,0.177700,0.177600,0.177500,0.177200,0.177000,0.176800,0.176700,0.176700,0.176700,0.176800,0.176800,0.176800,0.176800,0.176800,0.176700,0.176600,0.176400,0.176300,0.176100,0.176100,0.176200,0.176100,0.176100,0.176000,0.175800,0.175700,0.175600,0.175600,0.175600,0.175600,0.175600,0.175500,0.175500,0.175500,0.175400,0.175400,0.175200,0.175200,0.175100,0.174900,0.174800,0.174800,0.174900,0.174900,0.174900,0.174800,0.174500,0.174400,0.174300,0.174200,0.174200,0.174100,0.174000,0.173900,0.173800,0.173600,0.173500,0.173400,0.173300,0.173300,0.173200,0.173200,0.173200,0.173100,0.173100,0.172900,0.172900,0.172800,0.172800,0.172700,0.172600,0.172600,0.172400,0.172300,0.172100,0.172000,0.172000,0.171900,0.171900,0.171900,0.171800,0.171800,0.171800,0.171700,0.171700,0.171600,0.171600,0.171500,0.171300,0.171200,0.171100,0.171100,0.171100,0.171000,0.171000,0.171000,0.170900,0.170800,0.170600,0.170500,0.170300,0.170300,0.170200,0.170200,0.170200,0.170100,0.170100,0.170100,0.170000,0.170000,0.169800,0.169700,0.169600,0.169400,0.169400,0.169400,0.169500,0.169700,0.169700,0.169800,0.169800,1.000000,0.481900,0.481900,0.481900,1.000000,1.000000,1.000000,0.481000,0.481000,0.481000,0.480200,0.480100,0.479000,0.478800,0.478800,0.478700,0.478700,0.478600,0.478600,0.479600,0.479600,0.479600,0.479400,0.479100,0.478900,0.479000,0.479000,0.479200,1.000000,1.000000,1.000000,1.000000,1.000000,0.348500,0.348600,1.000000,0.478400,0.478400,0.478500,0.478700,0.478900,0.478900,0.480200,0.480200,0.479800,0.479700,0.478400,0.478300,0.478200,0.477900,0.477600,0.477500,0.477400,0.477300,1.000000,1.000000,1.000000,0.475600,0.475500,0.475200,0.475200,0.475100,0.475200,0.475200,0.473700,0.473600,0.473600,0.473500,0.473400,0.472600,0.472800,0.472800,0.472800,0.472800,0.471000,0.470800
1.000000,1.000000,0.549600,0.549600,0.549700,1.000000,1.000000,0.550900,0.550400,0.551200,0.552100,0.552000,0.552000,1.000000,0.546000,0.545900,0.545800,0.545800,1.000000,1.000000,1.000000,1.000000,1.000000,1.000000,1.000000,1.000000,1.000000,1.000000,1.000000,1.000000,0.179000,0.179100,0.179100,0.179200,0.179200,0.179200,0.179000,0.179000,0.179000,0.178900,0.178800,0.178600,0.178500,0.178400,0.178100,0.178000,0.178000,0.178000,0.178100,0.178100,0.178200,0.178200,0.178200,0.178200,0.178200,0.178000,0.177900,0.177700,0.177700,0.177600,0.177500,0.177400,0.177200,0.177100,0.176800,0.176800,0.176700,0.176700,0.176800,0.176800,0.176800,0.176800,0.176800,0.176700,0.176600,0.176500,0.176200,0.176100,0.176100,0.176100,0.176100,0.176000,0.175900,0.175700,0.175700,0.175600,0.175600,0.175600,0.175600,0.175700,0.175600,0.175600,0.175600,0.175400,0.175400,0.175300,0.175200,0.175100,0.174900,0.174800,0.174800,0.174800,0.174900,0.174900,0.174800,0.174400,0.174300,0.174200,0.174100,0.174100,0.174000,0.173900,0.173700,0.173600,0.173500,0.173400,0.173400,0.173300,0.173300,0.173200,0.173200,0.173200,0.173200,0.173100,0.173000,0.172900,0.172900,0.172900,0.172800,0.172700,0.172600,0.172400,0.172300,0.172100,0.172100,0.172000,0.172000,0.171900,0.171900,0.171900,0.171800,0.171800,0.171800,0.171700,0.171600,0.171500,0.171400,0.171200,0.171100,0.171100,0.171100,0.171000,0.171000,0.171000,0.170900,0.170800,0.170800,0.170600,0.170500,0.170300,0.170200,0.170200,0.170000,0.170000,0.170000,0.170000,0.170000,0.169900,0.169800,0.169700,0.169600,0.169600,0.169400,0.169400,0.169400,0.169500,0.169600,0.169800,0.169800,0.169900,1.000000,0.481700,0.481800,0.481600,1.000000,1.000000,0.481000,0.481000,0.480900,0.480900,0.480200,0.480200,0.479900,0.478900,0.478800,0.478700,0.478600,0.478600,0.478600,0.479600,0.479600,0.479400,0.479000,0.478900,0.478800,0.478800,0.478900,0.479000,0.479100,1.000000,1.000000,1.000000,1.000000,0.348700,1.000000,0.478400,0.478300,0.478200,0.478200,0.478800,0.478900,0.480100,0.480100,0.479700,0.479600,0.479600,0.478300,0.478300,0.478200,0.478000,0.477800,0.477600,0.477400,1.000000,0.477300,1.000000,1.000000,1.000000,0.475400,0.475000,0.474500,0.474500,0.475100,0.475200,0.475200,0.474500,0.473600,0.473400,0.473200,0.472300,0.472600,0.472700,0.472800,0.472800,0.470700,0.470700
1.000000,1.000000,1.000000,0.549700,0.550000,1.000000,0.552400,0.552400,0.552300,1.000000,0.552100,0.552000,0.550200,1.000000,1.000000,0.547800,0.545800,0.545800,1.000000,1.000000,0.548500,1.000000,1.000000,1.000000,1.000000,1.000000,1.000000,1.000000,1.000000,1.000000,0.179000,0.179000,0.179100,0.179200,0.179200,0.179200,0.179100,0.179000,0.179000,0.178900,0.178800,0.178600,0.178500,0.178400,0.178400,0.178600,0.178800,0.178300,0.178300,0.178200,0.178200,0.178200,0.178200,0.178200,0.178200,0.177900,0.177800,0.177600,0.177600,0.177500,0.177400,0.177400,0.177200,0.177200,0.176900,0.176800,0.176800,0.176800,0.176800,0.176800,0.176900,0.176800,0.176700,0.176700,0.176500,0.176200,0.176100,0.176000,0.176000,0.176000,0.176000,0.176000,0.175900,0.175700,0.175700,0.175600,0.175600,0.175600,0.175700,0.175700,0.175700,0.175600,0.175500,0.175400,0.175300,0.175200,0.175200,0.175100,0.174900,0.174900,0.174800,0.174800,0.174800,0.174800,0.174800,0.174400,0.174200,0.174200,0.174100,0.174100,0.174000,0.173900,0.173700,0.173600,0.173400,0.173400,0.173400,0.173400,0.173300,0.173300,0.173300,0.173200,0.173200,0.173200,0.173100,0.173000,0.172900,0.172900,0.172800,0.172600,0.172500,0.172300,0.172200,0.172100,0.172100,0.172000,0.172000,0.171900,0.171900,0.171900,0.171800,0.171800,0.171700,0.171600,0.171600,0.171400,0.171300,0.171100,0.171100,0.171000,0.171000,0.171000,0.171000,0.171000,0.170900,0.170800,0.170700,0.170500,0.170400,0.170200,0.170100,0.170100,0.170000,0.170000,0.170000,0.170000,0.170000,0.169900,0.169800,0.169700,0.169600,0.169600,0.169500,0.169500,0.169500,0.169600,0.169600,0.169700,0.169900,0.170000,1.000000,0.480400,0.481500,1.000000,1.000000,1.000000,0.480900,0.480900,0.480900,0.480500,0.480200,0.480100,0.480000,0.480000,0.480000,0.479800,0.479800,0.478700,0.478700,0.478700,0.479500,0.479400,0.479100,0.478900,0.478700,0.478800,0.478800,1.000000,0.477000,1.000000,1.000000,1.000000,1.000000,0.348800,1.000000,0.478400,0.478200,0.478200,0.478100,0.478900,0.480100,0.480100,0.479600,0.479400,0.479400,0.479400,0.478200,0.478200,0.478200,0.478100,0.477900,0.477600,0.477400,0.477400,0.477300,0.477300,1.000000,1.000000,1.000000,0.473500,0.473600,0.473700,0.473800,0.475100,0.475000,0.475000,0.473600,0.472900,0.472200,0.472000,0.472200,0.472600,0.472600,0.472700,0.470700,0.470700
0.553100,0.553100,0.553100,0.550100,0.550200,0.550200,0.550300,0.551800,0.551900,0.551800,0.550400,0.548700,0.548000,1.000000,1.000000,1.000000,0.545700,0.545700,1.000000,1.000000,1.000000,1.000000,1.000000,1.000000,1.000000,1.000000,1.000000,1.000000,1.000000,1.000000,0.179000,0.179000,0.179100,0.179200,0.179200,0.179200,0.179100,0.179000,0.179000,0.178900,0.178800,0.178600,0.178600,0.178500,0.178500,0.178700,0.178800,0.178600,0.178400,0.178400,0.178300,0.178300,0.178200,0.178100,0.178000,0.177800,0.177700,0.177600,0.177600,0.177500,0.177400,0.177400,0.177300,0.177200,0.177100,0.177000,0.177000,0.176900,0.176900,0.176900,0.176800,0.176800,0.176700,0.176700,0.176400,0.176200,0.176100,0.176000,0.176000,0.176000,0.176000,0.175900,0.175900,0.175800,0.175700,0.175600,0.175600,0.175600,0.175600,0.175600,0.175600,0.175500,0.175400,0.175300,0.175200,0.175200,0.175100,0.175100,0.174900,0.174900,0.174800,0.174800,0.174800,0.174700,0.174700,0.174100,0.174100,0.174000,0.174000,0.174000,0.173900,0.173800,0.173600,0.173500,0.173400,0.173400,0.173400,0.173400,0.173400,0.173300,0.173300,0.173300,0.173200,0.173200,0.173100,0.173100,0.173000,0.172900,0.172700,0.172600,0.172500,0.172300,0.172200,0.172100,0.172100,0.172000,0.172000,0.172000,0.171900,0.171900,0.171800,0.171800,0.171700,0.171600,0.171500,0.171400,0.171200,0.171100,0.171100,0.171000,0.171000,0.171000,0.171000,0.171000,0.170800,0.170800,0.170700,0.170500,0.170400,0.170200,0.170100,0.170100,0.170000,0.170000,0.170000,0.169900,0.169900,0.169800,0.169800,0.169700,0.169600,0.169600,0.169500,0.169500,0.169500,0.169600,0.169600,0.169700,0.169900,0.169900,1.000000,0.480300,1.000000,1.000000,1.000000,1.000000,0.480900,0.480900,0.480900,0.480300,0.480000,0.480000,0.479900,0.479900,0.479900,0.479800,0.479700,0.478900,0.478700,0.478700,0.478700,0.479000,0.479000,0.477100,0.477000,0.477000,0.476800,0.476700,0.476700,0.476800,1.000000,1.000000,1.000000,1.000000,0.478600,0.478500,0.478200,0.478100,0.478100,0.480100,0.480100,0.479200,0.479200,0.479300,0.479400,0.479400,0.478100,0.478100,0.478100,0.478100,0.478000,0.477700,0.477500,0.477500,0.477400,0.477400,1.000000,1.000000,1.000000,0.472200,0.473600,0.473700,0.473800,0.474200,0.475000,0.474900,0.474900,0.472900,0.472500,0.471900,0.471800,0.472000,0.472600,0.471500,0.470800,0.470800
0.552600,0.553100,0.553100,0.551900,0.550300,0.550300,0.550200,0.550000,0.549200,0.549000,0.548200,0.548000,0.548000,1.000000,1.000000,1.000000,0.545700,0.545700,0.543900,1.000000,0.547200,1.000000,0.547300,1.000000,1.000000,1.000000,1.000000,1.000000,1.000000,1.000000,0.179000,0.179100,0.179100,0.179200,0.179200,0.179200,0.179100,0.179100,0.179000,0.178900,0.178800,0.178700,0.178600,0.178500,0.178500,0.178600,0.178800,0.178800,0.178600,0.178500,0.178400,0.178300,0.178100,0.178000,0.177900,0.177800,0.177700,0.177600,0.177600,0.177500,0.177400,0.177400,0.177300,0.177300,0.177200,0.177100,0.177000,0.176900,0.176900,0.176900,0.176800,0.176800,0.176700,0.176600,0.176400,0.176200,0.176100,0.176000,0.176000,0.176000,0.176000,0.175900,0.175900,0.175800,0.175800,0.175700,0.175600,0.175600,0.175600,0.175600,0.175300,0.175400,0.175400,0.175200,0.175200,0.175100,0.175100,0.175100,0.175000,0.174900,0.174800,0.174800,0.174800,0.174700,0.174500,0.174100,0.174000,0.174000,0.173900,0.173900,0.173800,0.173700,0.173600,0.173500,0.173400,0.173400,0.173400,0.173400,0.173400,0.173400,0.173300,0.173200,0.173200,0.173200,0.173100,0.173100,0.173000,0.172900,0.172600,0.172600,0.172400,0.172300,0.172200,0.172100,0.172100,0.172000,0.172000,0.171900,0.171900,0.171900,0.171800,0.171700,0.171600,0.171500,0.171400,0.171300,0.171200,0.171100,0.171100,0.171000,0.171000,0.171000,0.171000,0.171000,0.170800,0.170800,0.170700,0.170500,0.170400,0.170200,0.170100,0.170100,0.170000,0.170000,0.170000,0.169900,0.169900,0.169800,0.169800,0.169700,0.169600,0.169600,0.169500,0.169500,0.169500,0.169600,0.169600,0.169700,0.169800,0.169900,1.000000,0.480300,0.480300,1.000000,1.000000,0.480900,1.000000,0.480900,0.480800,0.480000,0.479900,0.479900,0.479800,0.479800,0.479800,0.479400,0.479200,0.478900,0.478800,0.478700,0.478700,0.478900,0.478900,0.477100,0.477000,0.477000,0.476700,0.476600,0.476600,0.476600,1.000000,1.000000,1.000000,1.000000,0.478900,0.479100,0.478200,0.478100,0.479200,0.480100,0.480200,0.479100,0.479200,0.479200,0.479400,0.479400,0.478100,0.478100,0.478100,0.478000,0.478000,0.477600,0.477600,0.477500,0.477500,0.477500,1.000000,1.000000,1.000000,0.472200,0.472200,0.473600,0.473800,0.474200,0.474600,0.474800,0.474800,0.472900,0.472800,0.471700,0.471600,0.471600,0.471700,0.471000,0.470800,0.470800
0.552200,0.552200,0.553200,0.550500,0.550500,0.550400,0.550200,0.549500,0.549100,0.549000,0.548100,0.548100,0.548000,1.000000,1.000000,1.000000,0.545700,0.545700,1.000000,0.547100,1.000000,0.547300,0.548800,1.000000,0.544900,0.546000,0.544800,1.000000,1.000000,1.000000,1.000000,0.179200,0.179200,0.179300,0.179300,0.179300,0.179200,0.179200,0.179100,0.179000,0.178900,0.178700,0.178600,0.178600,0.178500,0.178600,0.178700,0.178700,0.178700,0.178600,0.178400,0.178300,0.178000,0.177900,0.177900,0.177800,0.177700,0.177700,0.177600,0.177600,0.177400,0.177400,0.177300,0.177300,0.177200,0.177200,0.177100,0.177000,0.176900,0.176800,0.176800,0.176800,0.176700,0.176600,0.176400,0.176200,0.176200,0.176000,0.176000,0.176000,0.175900,0.175900,0.175900,0.175800,0.175800,0.175700,0.175600,0.175500,0.175200,0.175100,0.175000,0.175000,0.175200,0.175200,0.175100,0.175100,0.175000,0.175000,0.175000,0.174900,0.174800,0.174800,0.174700,0.174600,0.174300,0.174000,0.174000,0.173900,0.173900,0.173900,0.173800,0.173700,0.173600,0.173500,0.173500,0.173400,0.173400,0.173400,0.173400,0.173400,0.173300,0.173200,0.173100,0.173100,0.173000,0.173000,0.172800,0.172800,0.172500,0.172400,0.172400,0.172300,0.172200,0.172100,0.172100,0.172000,0.171900,0.171900,0.171800,0.171800,0.171800,0.171700,0.171600,0.171300,0.171200,0.171200,0.171200,0.171100,0.171100,0.171100,0.171100,0.171100,0.171000,0.171000,0.170800,0.170800,0.170600,0.170500,0.170400,0.170300,0.170200,0.170200,0.170100,0.170100,0.170000,0.170000,0.169900,0.169800,0.169800,0.169700,0.169600,0.169600,0.169500,0.169500,0.169500,0.169600,0.169600,0.169700,0.169800,0.170600,1.000000,0.480200,0.480200,1.000000,1.000000,0.480900,0.480900,0.480900,0.479600,0.479700,0.479800,0.479800,0.479700,0.479700,0.479600,0.479200,0.479100,0.478800,0.478800,0.478700,0.478700,0.478900,0.478900,0.477900,0.477000,0.476900,0.476600,0.476600,0.476400,0.476400,1.000000,1.000000,0.349000,1.000000,0.479200,0.479200,0.479300,0.479400,0.480000,0.480300,0.480300,0.479100,0.479100,0.479200,0.479400,0.479400,0.478100,0.477000,0.476900,0.476800,0.476800,0.476800,0.477400,0.477600,0.477600,0.477500,0.477300,1.000000,1.000000,1.000000,0.472200,0.473400,0.473800,0.474300,0.474400,0.474500,0.474600,0.473000,0.472800,0.470900,0.470900,0.470900,0.470900,0.470800,0.470700,0.470700
