1.000000,1.000000,1.000000,1.000000,1.000000,1.000000,1.000000,1.000000,1.000000,0.758800,0.757200,1.000000,1.000000,1.000000,1.000000,1.000000,1.000000,1.000000,1.000000,0.768800,0.767300,0.762300,0.762200,1.000000,1.000000,1.000000,1.000000,1.000000,1.000000,1.000000,1.000000,1.000000,1.000000,1.000000,1.000000,0.552100,0.553000,1.000000,0.556500,1.000000,1.000000,1.000000,0.551000,0.551000,0.551000,0.550900,0.550800,0.548900,0.549000,0.549300,0.549400,0.549400,0.549400,0.549400,0.549400,0.549500,0.551700,1.000000,0.550800,0.549300,0.549300,0.549300,0.547900,0.547500,0.547400,0.547300,0.546500,0.546400,0.546400,0.546300,0.546200,0.546100,0.546100,0.546100,0.546100,1.000000,0.543300,0.543400,0.543400,0.544500,0.544500,0.544400,0.544400,0.544400,0.544300,0.544100,0.544000,0.544000,0.544000,0.544000,0.544000,0.544400,0.544400,0.543700,0.543100,0.543000,0.543000,0.542900,0.542800,0.540800,0.540700,0.540800,0.540800,0.542100,0.542600,0.542800,1.000000,1.000000,0.498500,0.498500,0.498500,0.498600,1.000000,1.000000,1.000000,1.000000,1.000000,1.000000,1.000000,1.000000,1.000000,1.000000,1.000000,1.000000,1.000000,0.292900,0.292900,0.292900,0.292800,0.292200,0.292000,0.291900,0.291800,0.291600,0.291600,0.291500,0.291400,0.291300,0.291300,0.291300,0.291200,0.291200,0.291200,0.291300,0.291300,0.291300,0.291300,0.290200,0.290200,0.290100,0.290100,0.290200,0.289100,0.289000,0.288900,0.288900,0.288900,0.288900,0.289000,0.289000,0.289000,0.289000,0.288600,0.288400,0.288300,0.288200,0.288200,0.288000,0.288000,0.287900,0.287800,0.287700,0.286700,0.286700,0.286800,0.286800,0.287000,0.287100,0.287100,0.287100,0.286900,0.286700,0.286500,0.286200,0.286000,0.285800,0.285800,0.285700,0.285600,0.285600,0.285500,0.285500,0.285600,0.285700,1.000000,1.000000,1.000000,1.000000,0.526000,0.523600,0.523700,0.523700,1.000000,1.000000,1.000000,1.000000,1.000000,1.000000,1.000000,1.000000,1.000000,1.000000,1.000000,1.000000,1.000000,1.000000,1.000000,1.000000,1.000000,1.000000,1.000000,1.000000,1.000000,1.000000,0.523400,0.523200,0.523200,0.522200,0.521800,0.521600,0.521500,0.521500,0.521400,0.519800,0.519900,1.000000,0.519900,1.000000,1.000000,1.000000,1.000000,1.000000,1.000000,1.000000,1.000000,1.000000,1.000000,1.000000,1.000000,1.000000,1.000000,1.000000,1.000000,1.000000,1.000000,1.000000
1.000000,1.000000,1.000000,1.000000,1.000000,1.000000,1.000000,1.000000,0.763300,0.760300,1.000000,1.000000,1.000000,1.000000,1.000000,1.000000,1.000000,1.000000,1.000000,1.000000,0.767400,0.762300,1.000000,1.000000,1.000000,1.000000,1.000000,1.000000,1.000000,1.000000,1.000000,1.000000,1.000000,1.000000,1.000000,1.000000,0.551400,0.551400,1.000000,1.000000,1.000000,1.000000,0.551000,0.551000,0.551000,0.550800,0.550700,0.549400,0.549300,0.549400,0.549400,0.549400,0.549400,0.549400,0.549500,0.549600,1.000000,0.550800,0.549300,0.549300,0.549300,0.548000,0.547800,0.547400,0.547400,0.546100,0.544800,0.546300,0.546300,0.546200,0.546200,0.546100,0.546100,0.546100,0.546100,0.546200,0.546200,0.546200,0.545100,0.545400,1.000000,0.545800,0.545600,0.545500,0.545300,0.545100,0.544900,0.544100,0.544000,0.544000,0.544000,0.544100,0.544100,0.543900,0.543000,0.542900,0.542800,0.542800,0.542700,0.540600,0.540600,0.540600,0.540600,0.542200,0.542800,0.542900,1.000000,1.000000,0.498500,0.498500,0.498500,0.498500,1.000000,1.000000,1.000000,1.000000,0.293400,0.293000,0.293000,0.292600,0.292400,0.292300,0.292200,0.292200,0.292300,0.292500,0.292800,0.292800,0.292500,0.292200,0.292000,0.291900,0.291800,0.291600,0.291600,0.291500,0.291400,0.291300,0.291300,0.291200,0.291200,0.291200,0.291200,0.291200,0.291200,0.291200,0.290300,0.290200,0.290100,0.290100,0.290100,0.290100,0.289100,0.289100,0.289000,0.289000,0.288900,0.288900,0.288900,0.288900,0.288900,0.288900,0.288500,0.288400,0.288200,0.288200,0.288100,0.288000,0.288000,0.287800,0.287800,0.287000,0.286700,0.286700,0.286800,0.286800,0.287000,0.287100,0.287100,0.287100,0.286800,0.286400,0.286300,0.286100,0.286000,0.285900,0.285800,0.285800,0.285700,0.285600,0.285600,0.285600,0.285600,0.285700,0.285700,1.000000,1.000000,0.526300,0.526200,0.523700,0.523700,0.523800,1.000000,0.529000,0.529000,1.000000,1.000000,1.000000,1.000000,1.000000,1.000000,1.000000,1.000000,1.000000,1.000000,1.000000,1.000000,1.000000,1.000000,1.000000,1.000000,1.000000,1.000000,1.000000,0.524300,0.524300,1.000000,1.000000,1.000000,1.000000,0.521500,1.000000,0.521400,1.000000,1.000000,0.519900,1.000000,1.000000,1.000000,1.000000,1.000000,1.000000,1.000000,1.000000,1.000000,1.000000,1.000000,1.000000,1.000000,1.000000,1.000000,1.000000,1.000000,1.000000,1.000000,1.000000
1.000000,1.000000,1.000000,1.000000,1.000000,1.000000,1.000000,1.000000,0.758900,0.758800,1.000000,1.000000,1.000000,1.000000,1.000000,1.000000,1.000000,1.000000,1.000000,1.000000,1.000000,1.000000,1.000000,1.000000,1.000000,1.000000,1.000000,1.000000,1.000000,1.000000,1.000000,1.000000,1.000000,1.000000,1.000000,1.000000,0.550700,0.550600,0.550600,1.000000,1.000000,1.000000,0.550600,0.550600,0.550700,0.550600,0.550500,0.549600,0.549600,0.549500,0.549500,0.549500,0.549500,0.549600,0.549600,0.549700,0.549800,0.549700,0.549300,0.549300,0.549300,0.548100,0.548000,0.547400,1.000000,0.544900,0.544900,0.545000,0.546200,0.546200,0.546200,0.546100,0.546100,0.546100,0.546100,0.546200,0.546200,0.546200,0.546300,0.546200,0.545900,0.545800,0.545600,0.545500,0.545200,0.545000,0.544900,0.544400,0.544100,0.542600,0.542600,0.542700,0.543900,0.543400,0.542800,0.542800,0.542500,0.542300,0.542100,0.540400,0.540400,0.540300,0.540300,0.542100,0.542800,0.542900,0.542900,1.000000,0.500000,0.500000,0.498500,0.498500,1.000000,1.000000,1.000000,0.293400,0.293400,0.292900,0.292700,0.292600,0.292500,0.292400,0.292300,0.292300,0.292300,0.292400,0.292700,0.292700,0.292400,0.292200,0.292100,0.291900,0.291800,0.291600,0.291600,0.291600,0.291400,0.291400,0.291300,0.291200,0.291200,0.291200,0.291200,0.291200,0.290900,0.290500,0.290300,0.290200,0.290100,0.290000,0.290000,0.289600,0.289200,0.289200,0.289100,0.289000,0.289000,0.289000,0.288900,0.288800,0.288800,0.288600,0.288300,0.288200,0.288100,0.288100,0.288000,0.288000,0.287900,0.287800,0.287600,0.286800,0.286700,0.286700,0.286800,0.286900,0.287000,0.287000,0.286900,0.286600,0.286300,0.286300,0.286200,0.286100,0.286000,0.285900,0.285900,0.285900,0.285800,0.285800,0.285700,0.285700,0.285700,0.285700,0.285700,1.000000,1.000000,1.000000,1.000000,0.523700,1.000000,1.000000,1.000000,0.529500,1.000000,1.000000,1.000000,1.000000,1.000000,1.000000,1.000000,1.000000,1.000000,1.000000,1.000000,1.000000,1.000000,1.000000,1.000000,1.000000,1.000000,0.479200,0.479300,1.000000,0.524300,0.524300,1.000000,1.000000,1.000000,1.000000,0.521400,0.521400,0.521400,1.000000,1.000000,1.000000,1.000000,1.000000,1.000000,1.000000,1.000000,1.000000,1.000000,1.000000,1.000000,1.000000,1.000000,1.000000,1.000000,1.000000,1.000000,1.000000,1.000000,1.000000,1.000000,1.000000
1.000000,1.000000,1.000000,1.000000,1.000000,1.000000,1.000000,1.000000,0.758900,1.000000,1.000000,1.000000,1.000000,1.000000,1.000000,1.000000,1.000000,1.000000,1.000000,1.000000,1.000000,1.000000,1.000000,1.000000,1.000000,1.000000,1.000000,1.000000,1.000000,1.000000,1.000000,1.000000,1.000000,1.000000,1.000000,1.000000,0.550700,0.550600,0.550600,1.000000,1.000000,1.000000,0.549500,0.549500,0.550600,0.550500,0.550500,0.549700,0.549600,0.549600,0.549600,0.551100,0.551000,0.550900,0.549700,0.549800,0.549800,0.549700,0.549300,0.549300,0.549300,0.548200,0.548200,0.545600,0.545500,0.544900,0.545000,0.545100,0.546100,0.546200,0.546200,0.546100,0.546100,0.546100,0.546100,0.546100,0.546200,0.546300,0.546300,0.546200,0.545800,0.545800,0.545600,0.545500,0.545000,0.544900,0.544800,0.544200,0.542400,0.542500,0.542600,0.542700,0.542800,0.542900,0.542800,0.542600,0.542200,0.542100,0.542000,0.540200,0.540200,0.540100,0.540100,0.540100,0.541700,0.542800,0.542800,1.000000,0.500600,0.500100,0.498600,0.498600,1.000000,1.000000,1.000000,0.293400,0.293400,0.292700,0.292600,0.292600,0.292500,0.292400,0.292300,0.292300,0.292300,0.292400,0.292600,0.292600,0.292400,0.292300,0.292100,0.291900,0.291800,0.291600,0.291600,0.291600,0.291400,0.291300,0.291200,0.291200,0.291200,0.291200,0.291100,0.290900,0.290500,0.290400,0.290300,0.290200,0.290100,0.290000,0.289900,0.289600,0.289300,0.289200,0.289200,0.289100,0.289100,0.289000,0.289000,0.288800,0.288700,0.288500,0.288300,0.288200,0.288100,0.288000,0.288000,0.288000,0.287900,0.287800,0.287200,0.286900,0.286800,0.286800,0.286900,0.287000,0.287000,0.287000,0.286800,0.286500,0.286300,0.286200,0.286200,0.286000,0.286000,0.285900,0.285900,0.285900,0.285900,0.285900,0.285800,0.285700,0.285600,0.285600,0.285600,0.285500,1.000000,1.000000,1.000000,1.000000,1.000000,1.000000,1.000000,1.000000,1.000000,1.000000,1.000000,1.000000,1.000000,1.000000,1.000000,1.000000,1.000000,1.000000,1.000000,1.000000,1.000000,1.000000,1.000000,1.000000,1.000000,0.479100,1.000000,1.000000,0.524300,0.524300,1.000000,1.000000,1.000000,1.000000,1.000000,0.521400,1.000000,1.000000,1.000000,1.000000,1.000000,1.000000,1.000000,1.000000,1.000000,1.000000,1.000000,1.000000,1.000000,1.000000,1.000000,1.000000,1.000000,1.000000,1.000000,1.000000,1.000000,1.000000,1.000000,1.000000
1.000000,1.000000,1.000000,1.000000,1.000000,1.000000,1.000000,1.000000,1.000000,1.000000,1.000000,1.000000,1.000000,1.000000,1.000000,1.000000,1.000000,1.000000,1.000000,1.000000,1.000000,1.000000,1.000000,1.000000,1.000000,1.000000,1.000000,1.000000,1.000000,1.000000,1.000000,1.000000,1.000000,1.000000,1.000000,1.000000,0.550600,0.550600,0.550600,1.000000,1.000000,1.000000,0.549400,0.549400,0.549400,0.550000,0.550500,0.550200,0.549800,0.549800,0.551100,0.551100,0.550900,0.550800,0.549800,0.549800,0.548400,0.548400,0.548500,0.549300,0.549300,0.548200,1.000000,1.000000,0.545600,1.000000,0.545100,0.545200,0.545300,0.546200,0.546200,0.546200,0.546100,0.546000,0.546000,0.546000,0.546300,0.546300,0.546400,0.546300,0.545800,0.545700,0.545600,0.544800,0.543800,0.543800,0.543700,0.542200,0.542300,0.542400,0.542600,0.542700,0.542800,0.542800,0.542500,0.542200,0.542000,0.542000,0.541900,0.540200,0.540100,0.540000,0.540000,0.539900,0.539900,0.542600,0.542700,1.000000,0.500200,0.500200,0.500100,1.000000,1.000000,1.000000,1.000000,0.292400,0.292500,0.292600,0.292600,0.292600,0.292600,0.292500,0.292300,0.292300,0.292400,0.292500,0.292600,0.292500,0.292300,0.292200,0.292100,0.291800,0.291700,0.291600,0.291600,0.291500,0.291400,0.291300,0.291200,0.291100,0.291100,0.291000,0.290900,0.290500,0.290500,0.290400,0.290300,0.290200,0.290100,0.290000,0.289900,0.289700,0.289500,0.289400,0.289300,0.289300,0.289200,0.289000,0.289000,0.288700,0.288600,0.288400,0.288200,0.288100,0.288000,0.288000,0.288000,0.288000,0.287900,0.287700,0.287200,0.287100,0.287000,0.287000,0.287100,0.287100,0.287000,0.287000,0.286700,0.286500,0.286200,0.286100,0.286000,0.285900,0.285900,0.285800,0.285800,0.285800,0.285800,0.285800,0.285800,0.285700,0.285500,0.285400,0.285200,0.284900,1.000000,1.000000,1.000000,1.000000,1.000000,1.000000,1.000000,1.000000,1.000000,1.000000,1.000000,1.000000,1.000000,1.000000,1.000000,1.000000,1.000000,1.000000,1.000000,1.000000,1.000000,1.000000,1.000000,1.000000,1.000000,0.479100,0.479100,1.000000,1.000000,1.000000,1.000000,1.000000,1.000000,1.000000,1.000000,1.000000,1.000000,1.000000,1.000000,1.000000,1.000000,1.000000,1.000000,1.000000,1.000000,1.000000,1.000000,1.000000,1.000000,1.000000,1.000000,1.000000,1.000000,1.000000,1.000000,1.000000,1.000000,1.000000,1.000000,1.000000
1.000000,1.000000,1.000000,1.000000,1.000000,1.000000,1.000000,1.000000,1.000000,1.000000,1.000000,1.000000,1.000000,1.000000,1.000000,1.000000,1.000000,1.000000,1.000000,1.000000,1.000000,1.000000,1.000000,1.000000,1.000000,1.000000,1.000000,1.000000,1.000000,1.000000,1.000000,1.000000,1.000000,1.000000,1.000000,1.000000,0.550500,0.550500,0.550500,1.000000,1.000000,1.000000,0.548900,0.549200,0.549400,0.549500,1.000000,0.551100,0.551100,0.551200,0.551100,0.549300,0.549400,0.549700,0.549700,0.548500,0.548500,0.548500,0.548500,0.549400,1.000000,1.000000,1.000000,1.000000,1.000000,1.000000,0.545300,0.545300,0.545300,0.546200,0.546200,0.546200,0.546200,0.545600,1.000000,0.543600,0.545900,0.546300,0.546200,0.545900,0.544500,0.544500,0.544400,0.544400,0.543900,0.543500,0.541900,0.541900,0.542100,0.542400,0.542600,0.542700,0.542700,0.542600,0.542200,0.542100,0.542000,0.541900,0.541800,0.541300,0.540000,0.539900,0.539900,0.539900,0.539900,0.540900,1.000000,1.000000,0.500200,0.498900,0.498800,0.498800,1.000000,1.000000,1.000000,0.292400,0.292500,0.292600,0.292600,0.292700,0.292800,0.292800,0.292800,0.292800,0.292700,0.292600,0.292600,0.292400,0.292300,0.292100,0.292000,0.291800,0.291600,0.291600,0.291500,0.291500,0.291400,0.291300,0.291100,0.291000,0.291000,0.290700,0.290600,0.290400,0.290300,0.290300,0.290200,0.290100,0.290000,0.289900,0.289800,0.289700,0.289500,0.289400,0.289300,0.289200,0.289200,0.289000,0.288900,0.288600,0.288400,0.288300,0.288200,0.288100,0.288000,0.288000,0.288000,0.287900,0.287800,0.287500,0.287300,0.287200,0.287100,0.287100,0.287100,0.287100,0.287000,0.286900,0.286700,0.286400,0.286200,0.286100,0.286000,0.285900,0.285800,0.285700,0.285700,0.285700,0.285800,0.285800,0.285700,0.285600,0.285400,0.285300,0.284800,0.284700,1.000000,1.000000,1.000000,1.000000,1.000000,1.000000,1.000000,1.000000,1.000000,1.000000,1.000000,1.000000,1.000000,1.000000,1.000000,1.000000,1.000000,1.000000,0.487400,1.000000,1.000000,1.000000,1.000000,1.000000,1.000000,0.479000,0.479000,1.000000,1.000000,1.000000,1.000000,1.000000,1.000000,1.000000,1.000000,1.000000,1.000000,1.000000,1.000000,1.000000,1.000000,1.000000,1.000000,1.000000,1.000000,1.000000,1.000000,1.000000,1.000000,1.000000,1.000000,1.000000,1.000000,1.000000,1.000000,1.000000,1.000000,1.000000,1.000000,1.000000
1.000000,1.000000,1.000000,1.000000,1.000000,1.000000,1.000000,1.000000,1.000000,1.000000,1.000000,1.000000,1.000000,1.000000,1.000000,1.000000,1.000000,1.000000,1.000000,1.000000,1.000000,1.000000,1.000000,1.000000,1.000000,0.762100,0.763700,0.763700,1.000000,1.000000,1.000000,1.000000,1.000000,1.000000,1.000000,1.000000,0.550500,0.550500,0.550500,1.000000,1.000000,1.000000,0.549300,0.549300,0.549400,0.549600,0.551100,0.551100,0.550300,0.550000,0.548000,0.548000,0.548100,0.548300,0.548500,0.548500,0.548500,0.548500,0.549600,0.549600,1.000000,0.547600,0.546000,0.546000,0.546400,1.000000,1.000000,1.000000,0.545300,0.545300,0.545300,0.545300,0.543600,0.543600,0.543600,0.543600,0.545600,0.546200,0.546100,0.544500,0.544500,0.544400,0.544400,0.544300,0.543900,0.541800,0.541800,0.541800,0.541900,0.542400,0.542600,0.542700,0.542700,0.542600,0.542300,0.542100,0.542000,0.541900,0.541800,0.541600,0.541200,0.539900,0.539900,0.539900,0.540000,0.540800,0.540700,0.540800,0.498900,0.498900,0.498800,0.498800,0.498800,1.000000,1.000000,0.292400,0.292500,0.292600,0.292700,0.292800,0.292800,0.292900,0.292800,0.292800,0.292800,0.292600,0.292500,0.292100,0.292000,0.292000,0.291800,0.291600,0.291500,0.291400,0.291400,0.291400,0.291200,0.291100,0.291000,0.290900,0.290800,0.290600,0.290500,0.290300,0.290300,0.290200,0.290100,0.290000,0.289900,0.289800,0.289800,0.289600,0.289500,0.289300,0.289200,0.289100,0.289100,0.289000,0.288900,0.288600,0.288400,0.288300,0.288100,0.288100,0.288000,0.288000,0.288000,0.287900,0.287700,0.287500,0.287400,0.287300,0.287200,0.287200,0.287100,0.287100,0.286900,0.286800,0.286500,0.286300,0.286000,0.286000,0.285900,0.285800,0.285700,0.284900,0.284900,0.284900,0.285000,0.285500,0.285400,0.285400,0.284300,0.284300,0.284400,0.284400,0.284400,0.284400,0.283100,0.282900,0.282800,1.000000,1.000000,0.281800,1.000000,1.000000,1.000000,1.000000,1.000000,1.000000,1.000000,1.000000,0.488500,0.487400,0.487400,1.000000,1.000000,1.000000,1.000000,1.000000,1.000000,1.000000,1.000000,1.000000,1.000000,1.000000,1.000000,1.000000,1.000000,1.000000,1.000000,1.000000,1.000000,1.000000,1.000000,1.000000,1.000000,1.000000,1.000000,1.000000,1.000000,1.000000,1.000000,1.000000,1.000000,1.000000,1.000000,1.000000,1.000000,1.000000,1.000000,1.000000,1.000000,1.000000,1.000000,1.000000
1.000000,1.000000,1.000000,1.000000,1.000000,1.000000,1.000000,1.000000,1.000000,1.000000,1.000000,1.000000,1.000000,1.000000,1.000000,1.000000,1.000000,1.000000,1.000000,1.000000,1.000000,1.000000,1.000000,1.000000,1.000000,1.000000,0.758300,0.758300,1.000000,1.000000,1.000000,1.000000,1.000000,1.000000,1.000000,1.000000,1.000000,0.550000,0.549900,1.000000,1.000000,1.000000,1.000000,0.551100,0.551100,0.551100,0.551100,0.550000,0.550000,0.548100,0.548000,0.548000,0.548100,0.548300,0.548400,0.548500,0.548600,0.548700,0.549900,0.549900,1.000000,0.546200,1.000000,0.546300,1.000000,0.546400,1.000000,1.000000,0.545300,0.545300,0.545300,0.543600,0.543500,0.543500,0.543500,0.543500,0.544800,0.546200,0.544500,0.544500,0.544400,0.544400,0.544400,0.544200,0.544100,0.541800,0.541800,0.541800,0.541900,0.542100,0.542500,0.542700,0.542700,0.542700,0.542300,0.542200,0.542000,0.541900,0.541900,0.541700,0.541300,0.540700,0.540200,0.540300,0.540600,0.540700,0.540700,1.000000,0.498900,0.498900,0.498900,0.498900,0.498900,1.000000,1.000000,0.292600,0.292600,0.292700,0.292800,0.292800,0.292800,0.292800,0.292800,0.292800,0.292700,0.292500,0.292000,0.291900,0.291900,0.291900,0.291700,0.291600,0.291500,0.291400,0.291400,0.291300,0.291000,0.290900,0.290700,0.290600,0.290600,0.290300,0.290300,0.290200,0.290100,0.290000,0.289900,0.289800,0.289600,0.289600,0.289600,0.289000,0.288900,0.288900,0.288900,0.288900,0.288900,0.288900,0.288800,0.288600,0.288400,0.288300,0.288100,0.288000,0.287900,0.287800,0.287800,0.287500,0.287400,0.287300,0.287300,0.287200,0.287100,0.287100,0.287000,0.287000,0.286800,0.286700,0.286400,0.286200,0.286000,0.285900,0.285900,0.285800,0.285000,0.284800,0.284800,0.284800,0.284900,0.285100,0.285200,0.285300,0.284300,0.284300,0.284300,0.284300,0.284300,0.284400,0.283000,0.282900,0.282800,0.282600,1.000000,0.281800,1.000000,1.000000,1.000000,1.000000,0.486000,0.486000,0.486000,0.485900,0.485900,0.486100,0.485900,1.000000,1.000000,1.000000,1.000000,1.000000,1.000000,1.000000,1.000000,1.000000,1.000000,1.000000,1.000000,1.000000,1.000000,1.000000,1.000000,1.000000,1.000000,1.000000,1.000000,1.000000,1.000000,1.000000,1.000000,1.000000,1.000000,1.000000,1.000000,1.000000,1.000000,1.000000,1.000000,1.000000,1.000000,1.000000,1.000000,1.000000,1.000000,1.000000,1.000000,1.000000
1.000000,1.000000,1.000000,1.000000,1.000000,1.000000,1.000000,1.000000,1.000000,1.000000,1.000000,1.000000,1.000000,1.000000,1.000000,1.000000,1.000000,1.000000,1.000000,1.000000,1.000000,1.000000,1.000000,1.000000,1.000000,1.000000,1.000000,1.000000,1.000000,1.000000,1.000000,1.000000,1.000000,1.000000,1.000000,0.548800,1.000000,0.548800,0.549800,0.549700,1.000000,1.000000,1.000000,1.000000,1.000000,0.551100,0.551100,0.550000,1.000000,0.548200,0.548000,0.548000,0.548100,0.548300,0.548400,0.548500,0.548600,0.548800,1.000000,0.550000,1.000000,0.547500,0.546200,0.546300,1.000000,1.000000,0.546400,1.000000,0.545300,0.545300,0.545300,0.543600,0.543500,0.543500,0.543500,0.543400,0.544600,0.546200,0.544500,0.544500,0.544400,0.544400,0.544400,0.544200,0.544100,0.544000,0.541800,0.541800,0.541900,0.542100,0.542400,0.542600,0.542700,0.542700,0.542500,0.542200,0.542000,0.542000,0.542000,0.541900,0.541800,0.540700,0.540600,0.540600,0.540600,0.540600,0.540600,0.540600,0.499000,0.499000,0.499000,0.499000,0.498900,1.000000,1.000000,0.292600,0.292700,0.292700,0.292800,0.292800,0.292800,0.292800,0.292800,0.292700,0.292700,0.291800,0.291800,0.291800,0.291800,0.291800,0.291600,0.291500,0.291400,0.291300,0.291300,0.291200,0.290800,0.290600,0.290600,0.290500,0.290300,0.290200,0.290200,0.290100,0.290000,0.290000,0.289800,0.289800,0.289600,0.289500,0.289400,0.288900,0.288900,0.288900,0.288900,0.288900,0.288900,0.288800,0.288800,0.288600,0.288400,0.288300,0.288100,0.288000,0.287800,0.287600,0.287500,0.287300,0.287300,0.287200,0.287200,0.287100,0.287000,0.287000,0.286900,0.286900,0.286700,0.286500,0.286200,0.286100,0.285900,0.285900,0.285800,0.285800,0.284800,0.284800,0.284800,0.284800,0.284800,0.285000,0.285000,0.284500,0.284300,0.284200,0.284200,0.284200,0.284200,0.284200,0.283000,0.282900,0.282700,0.282400,0.282200,0.282000,1.000000,1.000000,1.000000,1.000000,0.485900,0.485900,0.485900,0.485700,0.485500,0.485400,0.485400,0.485000,1.000000,1.000000,1.000000,1.000000,1.000000,1.000000,1.000000,1.000000,1.000000,1.000000,1.000000,1.000000,1.000000,1.000000,1.000000,1.000000,1.000000,1.000000,1.000000,1.000000,1.000000,1.000000,1.000000,1.000000,1.000000,1.000000,1.000000,1.000000,1.000000,1.000000,1.000000,1.000000,1.000000,1.000000,1.000000,1.000000,1.000000,1.000000,1.000000,1.000000
1.000000,1.000000,1.000000,1.000000,1.000000,1.000000,1.000000,1.000000,1.000000,1.000000,1.000000,1.000000,1.000000,1.000000,1.000000,1.000000,1.000000,1.000000,0.760300,1.000000,1.000000,1.000000,1.000000,1.000000,1.000000,1.000000,1.000000,1.000000,1.000000,1.000000,1.000000,1.000000,1.000000,1.000000,1.000000,1.000000,1.000000,0.548000,0.548000,1.000000,1.000000,1.000000,1.000000,1.000000,1.000000,0.550400,0.550200,0.550100,0.550100,0.550000,0.548000,0.547200,0.547600,0.548300,0.548400,0.548400,0.548500,0.548600,0.550000,0.550000,0.550000,0.550000,1.000000,1.000000,0.546300,1.000000,0.546400,1.000000,0.546400,0.547200,0.547500,0.545400,0.544300,0.543500,0.543500,0.543400,0.544600,0.546100,0.546100,0.546100,0.545900,0.545700,0.544500,0.544300,0.544200,0.544100,0.544000,0.542000,0.542000,0.542100,0.542300,0.542500,0.542800,0.542800,0.542800,0.542700,0.542600,0.542600,0.542600,0.542300,0.542100,0.540700,0.540700,0.540600,0.540100,0.540100,0.540000,0.540000,1.000000,0.500000,0.499000,0.499000,1.000000,1.000000,0.292500,0.292600,0.292600,0.292700,0.292800,0.292700,0.292700,0.292600,0.291600,0.291600,0.291500,0.291500,0.291500,0.291500,0.291600,0.291600,0.291400,0.291300,0.291300,0.291200,0.291100,0.291000,0.290500,0.290500,0.290300,0.290200,0.290100,0.290100,0.290000,0.290000,0.290000,0.289900,0.289800,0.289700,0.289500,0.289500,0.288900,0.288800,0.288800,0.288800,0.288800,0.288800,0.288800,0.288800,0.288800,0.288600,0.288400,0.288200,0.288000,0.287900,0.287400,0.287400,0.287300,0.287200,0.287200,0.287000,0.286900,0.286900,0.286800,0.286800,0.286700,0.286700,0.286500,0.286300,0.286000,0.286000,0.285800,0.285800,0.285800,0.284800,0.284800,0.284700,0.284700,0.284700,0.284800,0.284800,0.284700,0.284400,0.284200,0.284100,0.284100,0.284100,0.284100,0.284000,0.283100,0.282900,0.282700,0.282400,0.282300,0.282300,1.000000,1.000000,1.000000,1.000000,1.000000,0.485900,0.485800,0.485600,0.485300,0.485000,0.485000,0.484800,1.000000,1.000000,1.000000,1.000000,1.000000,1.000000,1.000000,1.000000,1.000000,1.000000,1.000000,1.000000,1.000000,1.000000,1.000000,1.000000,0.482800,0.482900,1.000000,1.000000,1.000000,1.000000,1.000000,1.000000,1.000000,1.000000,1.000000,1.000000,1.000000,1.000000,1.000000,0.482400,0.482300,1.000000,1.000000,0.477900,0.477900,0.477900,0.478300,0.479700
1.000000,1.000000,1.000000,1.000000,1.000000,1.000000,1.000000,1.000000,1.000000,1.000000,1.000000,1.000000,1.000000,1.000000,0.758000,1.000000,0.757100,0.757100,1.000000,1.000000,1.000000,1.000000,1.000000,1.000000,1.000000,1.000000,1.000000,1.000000,1.000000,1.000000,1.000000,1.000000,1.000000,1.000000,1.000000,1.000000,0.547900,0.547800,0.547800,1.000000,1.000000,1.000000,1.000000,1.000000,0.551000,0.550800,0.550400,0.550300,0.550200,0.550200,0.546700,0.546600,0.546700,0.548300,0.548400,0.548400,1.000000,0.548500,0.550400,0.550700,1.000000,0.549300,0.546200,0.546100,1.000000,1.000000,0.546400,0.546400,0.546600,0.547500,0.547800,0.546600,0.545500,0.543400,0.543400,0.543400,0.544500,0.544500,0.545800,0.546100,0.546000,0.546000,0.545900,0.544500,0.544200,0.544100,0.544100,0.542500,0.542100,0.542200,0.542200,0.542400,0.542700,0.542800,0.542700,0.542700,0.542600,0.542600,0.542600,0.540800,0.540800,0.540700,0.540700,0.540600,0.540200,0.540100,0.540000,1.000000,1.000000,0.500000,0.499700,1.000000,1.000000,0.292100,0.292100,0.292100,0.292000,0.292000,0.292000,0.292600,0.292600,0.292400,0.291500,0.291500,0.291500,0.291400,0.291000,0.290900,0.291400,0.291500,0.291300,0.291300,0.291200,0.291100,0.290800,0.290400,0.290200,0.290200,0.290000,0.289900,0.289900,0.289900,0.289900,0.289900,0.289800,0.289800,0.289600,0.289600,0.289400,0.289300,0.288800,0.288700,0.288700,0.288800,0.288800,0.288800,0.288700,0.288600,0.288600,0.287900,0.287800,0.287700,0.287400,0.287300,0.287200,0.287200,0.287100,0.287000,0.287000,0.286900,0.286900,0.286800,0.286700,0.286700,0.286700,0.286600,0.286400,0.286300,0.286100,0.285900,0.285800,0.285800,0.285700,0.284900,0.284800,0.284800,0.284700,0.284700,0.284700,0.284700,0.284500,0.284400,0.284200,0.284100,0.284100,0.284000,0.284000,0.283900,0.283700,0.283400,0.282800,0.282600,0.282500,0.282500,1.000000,1.000000,1.000000,1.000000,1.000000,0.484400,0.484200,0.483600,0.484000,0.484700,0.483400,0.483200,0.482700,1.000000,1.000000,1.000000,1.000000,1.000000,1.000000,0.484700,0.484900,0.485600,1.000000,1.000000,1.000000,1.000000,0.484000,0.482700,0.482700,0.482600,0.481400,1.000000,1.000000,1.000000,1.000000,1.000000,1.000000,1.000000,1.000000,1.000000,1.000000,1.000000,1.000000,1.000000,0.482100,1.000000,0.480400,0.477900,0.477900,0.478000,0.478100,0.478200
1.000000,1.000000,1.000000,1.000000,1.000000,1.000000,1.000000,1.000000,1.000000,1.000000,1.000000,1.000000,1.000000,1.000000,0.759800,0.758000,0.758000,0.760300,0.760300,1.000000,1.000000,1.000000,1.000000,1.000000,1.000000,1.000000,1.000000,1.000000,1.000000,1.000000,1.000000,1.000000,1.000000,1.000000,1.000000,1.000000,1.000000,0.547800,1.000000,1.000000,1.000000,1.000000,1.000000,0.550900,0.550800,0.550700,0.550600,0.550400,0.550300,0.548400,0.546600,0.546600,0.546600,0.548400,0.548400,0.548400,0.548500,0.548500,1.000000,0.550700,0.550600,0.549300,0.545400,1.000000,0.545000,0.545000,0.545000,1.000000,0.546500,0.547700,0.547700,0.547700,0.545800,0.544600,0.544600,0.544600,0.544500,0.543400,0.543900,0.546100,0.546000,0.546000,0.546000,0.544800,0.544800,0.544200,0.544100,0.542600,0.542400,0.542300,0.542500,0.542600,0.542700,0.542700,0.542600,0.542500,0.542600,0.542600,0.542500,0.540800,0.540800,0.540700,0.540600,0.540600,0.540200,0.540200,0.540100,0.540100,1.000000,0.499900,0.499900,1.000000,0.291800,0.291800,0.291900,0.291900,0.292000,0.291900,0.291900,0.291900,0.291600,0.291600,0.291400,0.291300,0.291200,0.290900,0.290800,0.290700,0.290600,0.290700,0.290800,0.291000,0.291000,0.290800,0.290500,0.290400,0.290200,0.290100,0.289900,0.289900,0.289900,0.289900,0.289900,0.289800,0.289800,0.289700,0.289600,0.289500,0.289300,0.289100,0.288800,0.288700,0.288700,0.288700,0.288800,0.288700,0.288600,0.288500,0.288300,0.287800,0.287700,0.287600,0.287400,0.287300,0.287100,0.287000,0.287000,0.286900,0.286800,0.286800,0.286700,0.286700,0.286600,0.286600,0.286600,0.286500,0.286300,0.286000,0.285900,0.285800,0.285700,0.285700,0.285600,0.285200,0.284900,0.284800,0.284800,0.284800,0.284700,0.284600,0.284300,0.284200,0.284000,0.284000,0.284000,0.284000,0.283900,0.283800,0.283700,0.283500,0.283000,0.282800,0.282600,0.282600,1.000000,1.000000,0.357900,1.000000,1.000000,1.000000,0.483400,0.483500,0.483600,0.483500,0.483400,0.483200,0.482800,0.482800,0.482800,1.000000,1.000000,1.000000,0.484600,0.484700,0.484700,0.484700,0.485700,0.484000,0.484000,0.482800,0.482700,0.482700,0.482600,0.482600,0.482500,0.481300,1.000000,1.000000,1.000000,1.000000,1.000000,1.000000,1.000000,1.000000,1.000000,1.000000,0.482100,0.480100,0.480200,0.480300,0.480300,0.479500,0.478000,0.478000,0.478200,0.478200
1.000000,1.000000,1.000000,1.000000,0.766800,1.000000,0.765600,0.763500,1.000000,1.000000,1.000000,1.000000,1.000000,0.759800,0.759900,0.759900,0.760600,1.000000,1.000000,1.000000,1.000000,1.000000,1.000000,1.000000,1.000000,1.000000,1.000000,1.000000,1.000000,1.000000,1.000000,1.000000,1.000000,1.000000,1.000000,1.000000,1.000000,1.000000,1.000000,1.000000,1.000000,1.000000,0.549300,0.549300,0.550800,0.550700,0.550600,0.550400,0.550200,0.548500,0.546600,0.546600,0.546600,0.548400,0.548600,0.549100,0.549500,0.549800,1.000000,1.000000,0.549300,1.000000,1.000000,0.545000,0.545000,0.545000,0.545100,0.546400,0.546600,0.547400,0.547500,0.545900,0.544700,0.544600,0.544600,0.544600,0.542200,0.542200,0.542200,0.544500,0.544600,0.544600,0.544800,0.544800,0.544700,0.544000,0.543900,0.543800,0.542500,0.542500,0.542600,0.542600,0.542600,0.542400,0.542100,0.542100,0.542000,0.542000,0.541600,0.540900,0.540800,0.540700,0.540700,0.540600,0.540400,0.540300,0.540200,1.000000,1.000000,1.000000,1.000000,1.000000,0.291700,0.291700,0.291800,0.291900,0.291900,0.291900,0.291900,0.291800,0.291600,0.291500,0.291300,0.291300,0.291100,0.290900,0.290800,0.290600,0.290600,0.290600,0.290700,0.290900,0.290800,0.290600,0.290500,0.290300,0.290200,0.290000,0.289900,0.289900,0.289800,0.289800,0.289800,0.289600,0.289600,0.289500,0.289400,0.289300,0.289000,0.288900,0.288800,0.288600,0.288500,0.288100,0.288100,0.288200,0.288300,0.288200,0.287800,0.287700,0.287700,0.287600,0.287400,0.287300,0.287000,0.287000,0.286900,0.286800,0.286800,0.286700,0.286700,0.286600,0.286600,0.286600,0.286500,0.286500,0.286100,0.285900,0.285900,0.285800,0.285700,0.285700,0.285600,0.285300,0.285100,0.284900,0.284900,0.284800,0.284600,0.284500,0.284200,0.284100,0.284000,0.283900,0.283900,0.283900,0.283900,0.283800,0.283700,0.283500,0.283100,0.282800,0.282700,0.282700,1.000000,1.000000,0.357900,0.358000,1.000000,1.000000,1.000000,0.483200,0.483400,0.483500,0.483400,0.483300,0.483000,0.482900,0.483000,0.485300,1.000000,0.484500,0.484500,0.484600,0.484600,0.483800,0.481800,0.481800,0.482900,0.482600,0.482600,0.482600,0.482600,0.482700,0.482800,0.482900,0.482900,1.000000,1.000000,1.000000,1.000000,1.000000,1.000000,1.000000,1.000000,1.000000,0.481900,0.480100,0.480100,0.480200,0.480200,0.480200,0.480200,0.478300,0.478300,0.478300
1.000000,1.000000,1.000000,1.000000,0.766800,0.766800,0.765500,0.763500,1.000000,1.000000,1.000000,1.000000,1.000000,1.000000,1.000000,1.000000,0.760600,1.000000,1.000000,1.000000,1.000000,1.000000,1.000000,1.000000,1.000000,1.000000,1.000000,1.000000,1.000000,1.000000,1.000000,1.000000,1.000000,1.000000,1.000000,1.000000,0.549100,0.547700,1.000000,1.000000,1.000000,1.000000,0.549300,0.549300,0.549300,0.550700,0.550600,0.550300,0.550000,0.549400,0.548000,0.548000,0.548000,0.548700,0.549300,0.549400,0.549700,0.550200,1.000000,0.550400,0.549200,0.546500,0.545100,0.545000,0.545000,0.545100,0.545100,0.546500,0.546800,0.547400,0.547400,0.545900,0.544700,0.544700,0.544600,0.544600,0.540800,0.542100,0.542200,0.543900,0.544600,0.544600,0.544600,0.544100,0.543800,0.543800,0.543800,0.543800,0.543700,0.542600,0.542600,0.542700,0.542600,0.542300,0.542000,0.542000,0.541900,0.541800,0.541600,0.541300,0.540800,0.540700,0.540700,0.540700,0.540500,0.540200,0.540100,0.540100,1.000000,0.499600,1.000000,1.000000,0.291600,0.291700,0.291800,0.291800,0.291900,0.291800,0.291800,0.291700,0.291500,0.291400,0.291300,0.291200,0.291100,0.290900,0.290800,0.290600,0.290600,0.290600,0.290700,0.290700,0.290700,0.290600,0.290500,0.290400,0.290200,0.290100,0.289900,0.289900,0.289800,0.289700,0.289700,0.289500,0.289400,0.289400,0.289300,0.289200,0.289000,0.288900,0.288800,0.288600,0.288300,0.288000,0.288000,0.288000,0.288000,0.288000,0.287700,0.287600,0.287600,0.287500,0.287400,0.287300,0.287100,0.287000,0.286900,0.286800,0.286700,0.286600,0.286500,0.286500,0.286500,0.286500,0.286400,0.286400,0.286000,0.285900,0.285900,0.285800,0.285700,0.285600,0.285600,0.285300,0.285200,0.285000,0.284900,0.284900,0.284500,0.284400,0.284200,0.284000,0.283900,0.283800,0.283800,0.283800,0.283900,0.283800,0.283600,0.283500,0.283100,0.282900,0.282700,0.282700,1.000000,0.357900,0.358000,0.358000,0.358000,1.000000,1.000000,0.482800,0.483400,0.483400,0.483400,0.483400,0.483000,0.483000,0.484800,0.485300,0.486400,0.484400,0.484400,0.483700,0.482700,0.481800,0.481800,0.481800,0.481900,0.482000,0.482300,0.482500,0.482600,0.482800,0.482900,0.482900,0.482900,1.000000,1.000000,1.000000,1.000000,1.000000,1.000000,1.000000,1.000000,0.480100,0.480100,0.480100,0.480100,0.480100,0.480200,0.480200,0.480200,0.478600,0.478400,0.478400
1.000000,1.000000,1.000000,1.000000,0.765700,0.765600,0.765600,1.000000,1.000000,1.000000,1.000000,1.000000,1.000000,1.000000,1.000000,1.000000,1.000000,1.000000,1.000000,1.000000,1.000000,1.000000,1.000000,1.000000,1.000000,1.000000,1.000000,1.000000,1.000000,1.000000,1.000000,1.000000,1.000000,1.000000,1.000000,1.000000,1.000000,0.547900,0.548000,1.000000,1.000000,1.000000,0.546700,0.546700,0.548100,0.549300,0.549500,0.549700,0.549600,0.549600,0.548100,0.547900,0.547900,0.548800,0.549400,0.549500,0.549700,0.550000,0.550000,0.548600,0.548300,0.546300,0.546300,0.546200,0.546200,0.546300,0.546400,0.546800,0.547300,0.547300,0.547400,0.544700,0.544700,0.544700,0.544700,0.542200,0.540800,0.540800,0.542200,0.544000,0.544500,0.544500,0.544500,0.543700,0.543600,0.543700,0.543700,0.543700,0.543600,0.543400,0.542800,0.542700,0.542600,0.542100,0.542000,0.541900,0.541800,0.541700,0.541600,0.541500,0.540900,0.540800,0.540800,0.540800,0.540500,0.540100,0.539900,0.539900,1.000000,0.499400,1.000000,1.000000,0.291600,0.291600,0.291600,0.291600,0.291700,0.291700,0.291600,0.291600,0.291300,0.291200,0.291100,0.291100,0.291100,0.290900,0.290800,0.290700,0.290700,0.290700,0.290700,0.290700,0.290700,0.290600,0.290600,0.290500,0.290400,0.290300,0.290000,0.289900,0.289800,0.289600,0.289500,0.289300,0.289300,0.289300,0.289200,0.289100,0.288900,0.288800,0.288700,0.288500,0.288200,0.288000,0.288000,0.288000,0.287900,0.287700,0.287600,0.287600,0.287600,0.287500,0.287400,0.287300,0.287100,0.287000,0.286900,0.286700,0.286600,0.286400,0.286300,0.286300,0.286300,0.286300,0.286300,0.286300,0.286000,0.286000,0.285900,0.285800,0.285700,0.285600,0.285500,0.285300,0.285200,0.285000,0.285000,0.284900,0.284500,0.284300,0.284000,0.284000,0.283800,0.283800,0.283800,0.283800,0.283800,0.283700,0.283600,0.283400,0.283100,0.283000,0.282800,0.282800,1.000000,1.000000,1.000000,0.359300,0.358000,0.359300,1.000000,1.000000,0.483300,0.483400,0.483500,0.484000,0.484500,0.484700,0.484800,0.484900,0.485300,0.484200,0.483900,0.481800,0.481700,0.481800,0.481800,0.481800,0.481900,0.482000,0.482100,0.482400,0.482500,0.483000,0.483000,0.483000,0.482700,0.484000,1.000000,1.000000,1.000000,1.000000,1.000000,1.000000,1.000000,0.480100,0.480100,0.480100,0.480100,0.480100,0.480200,0.480200,0.478800,0.478700,0.478600,0.477100
1.000000,1.000000,1.000000,1.000000,1.000000,0.765100,1.000000,1.000000,1.000000,1.000000,1.000000,1.000000,1.000000,1.000000,1.000000,1.000000,1.000000,1.000000,1.000000,1.000000,1.000000,1.000000,1.000000,1.000000,1.000000,1.000000,1.000000,1.000000,1.000000,1.000000,1.000000,1.000000,1.000000,1.000000,1.000000,1.000000,1.000000,1.000000,1.000000,1.000000,1.000000,1.000000,0.546500,0.546600,0.546800,0.548100,0.549400,0.549500,0.549500,0.549500,0.548800,0.547900,0.547800,0.547800,0.548900,0.549500,0.549600,0.549700,0.549500,0.548400,0.548300,0.548200,0.546500,0.546300,0.546300,0.546300,0.546300,0.547200,0.547300,0.547300,0.545800,0.544800,0.543100,0.543000,0.541200,0.541000,0.540900,0.540900,0.541800,0.542800,0.543700,0.544300,0.544300,0.543700,0.543600,0.543600,0.543600,0.543600,0.543600,0.543500,0.543300,0.542800,0.541900,0.541900,0.541900,0.542000,0.541900,0.541800,0.541700,0.541600,0.541600,0.541500,0.541400,0.541300,0.541300,0.540100,0.539800,0.539800,1.000000,0.499400,0.499400,1.000000,0.291600,0.291600,0.291600,0.291600,0.291600,0.291600,0.291600,0.291500,0.291200,0.291100,0.291100,0.291000,0.291000,0.291000,0.290900,0.290800,0.290800,0.290700,0.290700,0.290700,0.290700,0.290600,0.290600,0.290500,0.290400,0.290300,0.290100,0.289800,0.289400,0.289200,0.289200,0.289100,0.289100,0.289100,0.289000,0.288900,0.288800,0.288700,0.288600,0.288400,0.288300,0.288000,0.288000,0.287900,0.287700,0.287600,0.287500,0.287400,0.287500,0.287500,0.287500,0.287500,0.287600,0.287400,0.287200,0.286800,0.286600,0.286300,0.286200,0.286200,0.286200,0.286300,0.286300,0.286300,0.286200,0.286000,0.286000,0.285900,0.285800,0.285600,0.285500,0.285400,0.285200,0.285100,0.285000,0.285000,0.284800,0.284300,0.284000,0.284000,0.283800,0.283800,0.283700,0.283700,0.283700,0.283700,0.283600,0.283400,0.283100,0.283000,0.282900,0.282900,0.282900,1.000000,1.000000,0.359800,1.000000,1.000000,1.000000,1.000000,0.483200,0.483200,0.483400,0.484400,0.484500,0.484700,0.482000,0.482000,0.482000,0.482000,0.481800,0.481600,0.481600,0.481700,0.481800,0.481900,0.481900,0.482000,0.482000,0.482100,0.482100,0.483100,0.482600,0.481600,0.481600,0.481000,1.000000,1.000000,1.000000,1.000000,1.000000,1.000000,1.000000,1.000000,1.000000,0.480100,0.480200,0.480300,0.480200,0.478900,0.478800,0.478800,0.478800,0.477200
1.000000,1.000000,1.000000,1.000000,1.000000,1.000000,1.000000,1.000000,0.755700,0.759400,1.000000,1.000000,1.000000,1.000000,1.000000,1.000000,1.000000,1.000000,1.000000,1.000000,1.000000,1.000000,1.000000,1.000000,1.000000,1.000000,0.753100,0.753100,1.000000,1.000000,1.000000,1.000000,1.000000,1.000000,1.000000,1.000000,1.000000,0.548600,0.548600,1.000000,0.542500,0.545000,0.546600,0.546600,0.546800,0.548000,0.549400,0.549400,0.548800,0.548700,0.546900,0.547000,0.547000,0.547200,0.547600,0.547800,0.549400,0.548300,0.548300,0.548400,0.548300,0.548400,0.546600,0.546500,0.546400,0.546300,0.546200,0.546200,0.547300,0.545500,0.545100,0.543100,0.543000,0.541300,0.541200,0.541200,0.541100,0.541600,0.541700,0.542800,0.542800,0.543000,0.544200,0.544200,0.544000,0.543700,0.543700,0.543600,0.543600,0.543600,0.543500,0.543500,0.541000,0.540900,0.540900,0.542100,0.542200,0.541800,0.541700,0.541700,0.541700,0.541600,0.541500,0.541400,0.541300,0.540000,0.539100,0.539100,1.000000,0.498600,0.498500,0.498600,0.292300,0.291600,0.291600,0.291600,0.291500,0.291400,0.291300,0.291200,0.291000,0.291000,0.290900,0.290900,0.290900,0.290900,0.290800,0.290800,0.290800,0.290800,0.290700,0.290700,0.290700,0.290600,0.290600,0.290600,0.290600,0.290400,0.290000,0.289300,0.289200,0.289100,0.289100,0.289000,0.289000,0.289000,0.288900,0.288900,0.288800,0.288700,0.288600,0.288400,0.288300,0.288100,0.288000,0.288000,0.287800,0.287700,0.287500,0.287500,0.287500,0.287500,0.287500,0.287600,0.287600,0.287600,0.287400,0.287000,0.286800,0.286200,0.286100,0.286000,0.286000,0.286100,0.286100,0.286200,0.286100,0.286000,0.286000,0.285800,0.285800,0.285500,0.285400,0.285300,0.285200,0.285000,0.285000,0.285000,0.284700,0.284400,0.284100,0.284000,0.283800,0.283800,0.283700,0.283700,0.283700,0.283600,0.283500,0.283400,0.283100,0.283100,0.283000,0.283000,0.283000,1.000000,1.000000,0.360700,0.359400,1.000000,1.000000,1.000000,1.000000,0.482900,0.483200,0.484500,0.484500,0.483100,0.481900,0.481900,0.482000,0.482000,0.481800,0.481600,0.481600,0.481700,0.481800,0.481900,0.481900,0.481900,0.482000,0.482000,0.482000,0.481900,0.481200,0.481100,0.481000,1.000000,1.000000,1.000000,1.000000,1.000000,1.000000,1.000000,1.000000,1.000000,1.000000,0.480100,0.480900,0.480400,0.480300,0.478900,0.478900,0.478800,0.478800,0.477200
1.000000,1.000000,1.000000,1.000000,1.000000,1.000000,1.000000,1.000000,1.000000,1.000000,1.000000,1.000000,1.000000,1.000000,1.000000,1.000000,0.759500,0.759500,1.000000,1.000000,1.000000,1.000000,1.000000,1.000000,1.000000,1.000000,1.000000,0.753400,1.000000,1.000000,1.000000,1.000000,1.000000,1.000000,1.000000,1.000000,0.548800,1.000000,1.000000,0.548500,0.542500,0.542500,0.545000,0.546700,0.549400,0.549500,0.549400,0.548900,0.548600,0.546800,0.546800,0.546900,0.547000,0.547300,0.547600,0.547900,0.548400,0.547900,0.547900,0.548200,0.548400,0.548400,0.546500,0.546400,0.546400,0.546300,0.546000,0.545900,0.545500,0.545400,0.545200,0.543100,0.542900,0.541300,0.541300,0.541300,0.541300,0.541500,0.541400,0.541400,0.541600,0.541700,0.542600,0.544100,0.544100,0.543900,0.543800,0.543700,0.543600,0.543600,0.543500,0.542500,0.540900,0.540800,0.540800,0.542200,0.542500,0.542500,0.542100,0.541700,0.541600,0.541600,0.541500,0.541400,0.541400,0.540000,0.539000,0.539000,1.000000,0.497900,0.496100,1.000000,0.293200,0.292300,0.292000,0.291600,0.291500,0.291300,0.291200,0.291100,0.291000,0.290900,0.290900,0.290900,0.290900,0.290700,0.290600,0.290600,0.290600,0.290600,0.290600,0.290600,0.290600,0.290600,0.290600,0.290600,0.290500,0.290400,0.289600,0.289100,0.289000,0.289000,0.289000,0.289000,0.288900,0.288900,0.288900,0.288800,0.288700,0.288600,0.288600,0.288400,0.288300,0.288200,0.288100,0.288000,0.287900,0.287700,0.287600,0.287600,0.287500,0.287500,0.287600,0.287600,0.287600,0.287600,0.287400,0.287200,0.287100,0.286900,0.286000,0.286000,0.286000,0.286000,0.286000,0.286100,0.286000,0.286000,0.285900,0.285800,0.285700,0.285400,0.285300,0.285200,0.285100,0.285000,0.285000,0.284900,0.284600,0.284500,0.284200,0.284100,0.283900,0.283800,0.283700,0.283600,0.283500,0.283400,0.283400,0.283300,0.283100,0.283000,0.283000,0.283000,0.283000,1.000000,1.000000,1.000000,1.000000,0.357900,1.000000,1.000000,0.482500,0.481100,0.481400,0.482100,0.481900,0.481900,0.481900,0.481900,0.482000,0.481900,0.481800,0.481600,0.481600,0.481700,0.481800,0.481900,0.481900,0.481900,0.481900,0.482000,0.481900,0.481800,0.481200,0.481100,1.000000,0.481100,1.000000,1.000000,1.000000,1.000000,1.000000,1.000000,1.000000,1.000000,0.479200,0.479800,0.481400,0.481400,0.480400,0.480300,0.478900,0.478800,0.478800,0.477400
1.000000,1.000000,1.000000,1.000000,1.000000,1.000000,1.000000,1.000000,1.000000,1.000000,1.000000,1.000000,1.000000,1.000000,1.000000,1.000000,0.761000,0.761100,0.760000,0.761300,1.000000,1.000000,1.000000,1.000000,1.000000,1.000000,1.000000,0.753400,0.753700,1.000000,1.000000,1.000000,1.000000,1.000000,1.000000,1.000000,0.549200,0.549000,0.549000,0.548500,0.542500,0.542500,0.543600,0.546700,0.549800,0.549700,0.549600,0.548400,0.546700,0.546700,0.546500,0.546800,0.547000,0.547600,0.547600,0.548200,0.546000,0.546000,0.546200,0.548000,0.548500,0.548500,0.546400,0.546300,0.546300,0.546200,0.545900,0.545800,0.545500,0.545400,1.000000,0.545200,0.543800,0.541500,0.541500,0.541500,0.541400,0.541400,0.541300,0.541300,0.541400,0.541800,0.542500,0.543900,0.544100,0.543900,0.543900,0.543800,0.543600,0.542400,0.542400,0.542300,0.540900,0.540800,0.540700,0.540600,0.540600,0.541900,0.541700,0.540300,0.541500,0.541400,0.541400,0.541400,0.539300,0.539000,0.538900,0.538900,1.000000,0.496200,0.496100,1.000000,0.293200,0.292300,0.292200,0.291700,0.291500,0.291300,0.291200,0.291100,0.291000,0.290900,0.290800,0.290800,0.290800,0.290600,0.290600,0.290600,0.290600,0.290600,0.290600,0.290600,0.290600,0.290600,0.290600,0.290500,0.290500,0.290300,0.289300,0.289100,0.289000,0.289000,0.288900,0.288900,0.288900,0.288900,0.288900,0.288800,0.288700,0.288600,0.288600,0.288400,0.288400,0.288300,0.288200,0.288200,0.288000,0.288000,0.287700,0.287700,0.287600,0.287500,0.287500,0.287600,0.287500,0.287500,0.287400,0.287200,0.287100,0.287000,0.286900,0.286000,0.285800,0.285800,0.285800,0.285800,0.285800,0.285800,0.285700,0.285600,0.285400,0.285200,0.285100,0.285000,0.284900,0.284900,0.284800,0.284700,0.284600,0.284500,0.284400,0.284300,0.284000,0.283800,0.283700,0.283500,0.283500,0.283400,0.283300,0.283200,0.283000,0.282900,0.282900,0.282900,1.000000,1.000000,1.000000,1.000000,0.356400,0.356400,0.356400,1.000000,0.480100,0.480200,0.480200,0.482000,0.481900,0.481900,0.481900,0.481900,0.483500,0.483600,0.483600,0.481600,0.481600,0.481700,0.481800,0.481900,0.481900,0.481900,0.481900,0.482000,0.481900,0.481800,0.481200,0.481200,0.481100,0.481100,1.000000,1.000000,1.000000,1.000000,1.000000,1.000000,1.000000,1.000000,1.000000,0.478300,0.479900,0.481500,0.481500,0.480000,0.478900,0.478900,0.477500,0.477400
1.000000,1.000000,1.000000,1.000000,1.000000,1.000000,1.000000,1.000000,1.000000,1.000000,1.000000,1.000000,1.000000,1.000000,1.000000,0.759000,0.761300,0.761200,0.761300,0.761300,1.000000,1.000000,1.000000,1.000000,1.000000,1.000000,1.000000,0.753400,0.753700,1.000000,0.760300,1.000000,1.000000,1.000000,1.000000,1.000000,0.549200,0.549200,0.548800,0.548400,0.542500,0.542600,0.543000,0.548700,0.549900,0.549800,0.549700,0.548400,0.546600,0.546200,0.546200,0.546600,0.546800,0.547600,0.547800,0.546100,0.545600,0.545600,0.546200,0.548400,0.548500,0.548500,0.546300,0.546200,0.546200,0.546100,0.545900,0.545700,0.545600,0.545500,0.547100,0.545600,0.544900,0.541600,0.541600,0.541600,0.541500,0.541400,0.541300,0.541300,0.541800,0.542100,0.543600,0.543600,0.544000,0.543900,0.543900,0.543700,0.543600,0.542400,0.542300,0.542200,0.542100,0.540800,0.540600,0.540500,0.540400,0.540500,0.540000,0.540000,0.540000,0.541300,0.541300,0.541200,0.539200,0.539000,0.538900,0.538900,1.000000,0.496200,0.496200,1.000000,0.293100,0.292500,0.292200,0.291900,0.291700,0.291300,0.291200,0.291100,0.291000,0.290900,0.290800,0.290800,0.290800,0.290600,0.290600,0.290500,0.290500,0.290500,0.290500,0.290500,0.290500,0.290500,0.290500,0.290500,0.290400,0.290000,0.289700,0.289200,0.289100,0.289000,0.288900,0.288900,0.288900,0.288900,0.288900,0.288800,0.288700,0.288600,0.288600,0.288400,0.288400,0.288300,0.288200,0.288200,0.288100,0.288000,0.287800,0.287700,0.287600,0.287500,0.287500,0.287500,0.287500,0.287400,0.287300,0.287200,0.287100,0.286900,0.286900,0.286800,0.285800,0.285700,0.285700,0.285700,0.285700,0.285700,0.285600,0.285500,0.285400,0.285200,0.285000,0.285000,0.284900,0.284900,0.284700,0.284700,0.284500,0.284500,0.284400,0.284400,0.284200,0.283700,0.283600,0.283500,0.283400,0.283300,0.283200,0.283100,0.282900,0.282800,0.282700,0.282700,0.282800,1.000000,0.360700,0.360700,0.356400,0.356400,0.356400,1.000000,0.480100,0.480100,0.480200,1.000000,0.481900,1.000000,0.481900,0.481900,0.483600,0.483600,0.483600,0.481600,0.481700,0.481700,0.481800,0.481900,0.481900,0.481900,0.482000,0.482000,0.482000,0.481900,0.481300,0.481200,1.000000,1.000000,1.000000,1.000000,1.000000,1.000000,1.000000,1.000000,1.000000,1.000000,0.478200,0.478300,0.478400,0.479900,0.479900,0.479800,0.479000,0.478900,0.478400,0.477400
1.000000,1.000000,1.000000,1.000000,1.000000,1.000000,1.000000,1.000000,1.000000,1.000000,1.000000,1.000000,1.000000,1.000000,1.000000,0.760300,0.761400,0.762900,1.000000,1.000000,1.000000,1.000000,1.000000,1.000000,1.000000,1.000000,1.000000,1.000000,1.000000,0.760200,1.000000,0.760200,1.000000,1.000000,1.000000,1.000000,1.000000,0.549200,0.548400,0.546300,0.543500,1.000000,0.542700,0.548500,0.549000,0.548400,0.548400,0.548400,0.548400,0.546200,0.546200,0.546200,0.546400,0.547600,0.547700,0.545500,0.545500,0.545500,0.546400,0.548500,0.548500,0.548500,0.546100,0.546000,0.546000,0.545900,0.545700,0.545600,0.545600,0.547100,0.547100,0.547000,0.545700,0.541700,0.541600,0.541600,0.541500,0.541400,0.541200,0.542000,0.543500,0.543500,0.543500,0.543500,0.542300,0.542300,0.542300,0.542800,0.542600,0.542300,0.542200,0.542200,0.542100,0.542000,0.540500,0.540400,0.540000,0.540000,0.540000,0.540000,0.540000,0.539900,0.541200,0.539400,0.539200,0.539200,0.539000,0.539000,1.000000,0.496300,1.000000,1.000000,1.000000,0.292400,0.292200,0.292000,0.291900,0.291600,0.291400,0.291200,0.291000,0.291000,0.290900,0.290900,0.290800,0.290700,0.290600,0.290500,0.290400,0.290400,0.290400,0.290300,0.290300,0.290300,0.290300,0.290200,0.290100,0.289800,0.289700,0.289400,0.289100,0.289000,0.288900,0.288900,0.288900,0.288900,0.288900,0.288900,0.288700,0.288600,0.288500,0.288400,0.288300,0.288200,0.288200,0.288100,0.288000,0.287900,0.287800,0.287700,0.287500,0.287500,0.287400,0.287400,0.287400,0.287400,0.287300,0.287200,0.287100,0.286900,0.286900,0.286800,0.285800,0.285700,0.285600,0.285600,0.285600,0.285600,0.285500,0.285400,0.285300,0.285100,0.285000,0.285000,0.284900,0.284800,0.284700,0.284700,0.284600,0.284500,0.284400,0.284400,0.284300,0.283700,0.283600,0.283500,0.283400,0.283200,0.283100,0.283000,0.282700,0.282500,0.282400,0.282400,0.282500,1.000000,0.360700,0.359400,0.358400,0.356400,0.356400,1.000000,1.000000,0.480100,1.000000,1.000000,1.000000,0.483200,0.483300,0.483300,0.483600,0.483600,0.483600,0.481700,0.481800,0.482200,0.482200,0.482100,0.482100,0.482000,0.482000,0.482000,0.482000,0.481900,0.481800,0.481600,1.000000,1.000000,1.000000,1.000000,1.000000,1.000000,1.000000,1.000000,1.000000,1.000000,1.000000,0.478300,0.478500,0.478600,0.479800,0.479600,0.479300,0.479200,0.479000,0.479000
0.762300,0.762300,0.762200,1.000000,1.000000,1.000000,1.000000,1.000000,1.000000,1.000000,1.000000,1.000000,1.000000,1.000000,1.000000,0.760100,0.761700,0.762900,0.762900,0.757400,0.756800,1.000000,1.000000,1.000000,1.000000,1.000000,1.000000,1.000000,0.757800,0.760200,1.000000,1.000000,1.000000,1.000000,1.000000,1.000000,0.549200,0.549100,0.547700,0.546200,0.542800,1.000000,1.000000,0.548400,0.548400,0.548400,0.548400,0.548400,0.548400,0.546400,0.546200,0.546200,0.546300,1.000000,1.000000,1.000000,1.000000,0.545500,0.546700,0.548500,0.548500,0.548500,0.546000,0.546000,0.545900,0.545800,0.545600,0.545600,0.545600,0.547100,0.547100,0.547100,0.547000,0.543500,1.000000,1.000000,0.543600,0.543800,0.544000,0.543700,0.543600,0.543600,0.543500,0.542300,0.542200,0.542200,0.542300,0.542500,0.542600,0.542600,0.542100,0.542000,0.541900,0.540800,0.540100,0.540000,0.540000,0.540000,0.540000,0.540000,0.539900,0.539600,0.539500,0.539400,0.539300,0.539200,0.539100,0.539100,1.000000,0.496400,0.496400,1.000000,1.000000,0.292300,0.292000,0.291800,0.291800,0.291700,0.291600,0.291300,0.291100,0.291100,0.291100,0.291100,0.291000,0.290800,0.290600,0.290500,0.290400,0.290400,0.290300,0.290300,0.290200,0.290200,0.290200,0.290100,0.290000,0.289800,0.289700,0.289500,0.289300,0.289100,0.289000,0.289000,0.289000,0.289000,0.289000,0.288900,0.288700,0.288600,0.288500,0.288300,0.288300,0.288000,0.288000,0.287900,0.287800,0.287700,0.287600,0.287500,0.286500,0.286600,0.287300,0.287300,0.287400,0.287300,0.287300,0.287200,0.287100,0.286900,0.286800,0.286700,0.286000,0.285700,0.285500,0.285500,0.285400,0.285400,0.285400,0.285300,0.285300,0.285200,0.285000,0.285000,0.284900,0.284800,0.284700,0.284700,0.284700,0.284600,0.284500,0.284500,0.284400,0.284300,0.283800,0.283500,0.283400,0.283200,0.283100,0.283000,0.282700,0.282400,0.282400,0.282400,0.282400,1.000000,0.360700,0.358800,0.358200,0.356400,0.356400,1.000000,1.000000,1.000000,1.000000,1.000000,1.000000,0.483300,0.483300,0.483400,0.483500,0.483600,0.482300,0.482200,0.482300,0.482300,0.482300,0.482200,0.482100,0.482100,0.482100,0.482100,0.482000,0.481400,0.481500,0.481500,0.481500,0.481400,1.000000,1.000000,1.000000,1.000000,1.000000,1.000000,1.000000,1.000000,0.478400,0.478400,0.478600,0.478600,0.478900,0.479100,0.479200,0.479200,0.479200,0.479200
0.761000,0.761000,1.000000,1.000000,1.000000,1.000000,1.000000,1.000000,1.000000,1.000000,1.000000,1.000000,1.000000,1.000000,1.000000,1.000000,0.761700,0.761700,0.759500,0.757400,1.000000,0.756200,0.756200,1.000000,1.000000,1.000000,1.000000,0.756500,1.000000,1.000000,1.000000,1.000000,1.000000,1.000000,1.000000,1.000000,0.550400,0.549200,1.000000,1.000000,1.000000,1.000000,1.000000,1.000000,0.548300,0.548300,0.548400,0.548400,1.000000,1.000000,1.000000,0.546300,1.000000,1.000000,1.000000,0.547400,0.546700,0.546800,0.546800,0.546900,0.548400,0.548400,0.544700,0.544700,0.544600,0.544600,0.544600,0.544700,0.545600,0.547100,0.547100,0.547100,0.546900,0.543400,1.000000,1.000000,0.543700,0.545000,0.544900,0.544200,0.543600,0.542400,0.542300,0.542200,0.542200,0.542200,0.542300,0.542500,0.542600,0.542600,0.542000,0.542000,0.541100,0.540800,0.540000,0.540000,0.539900,0.539900,0.540900,0.540200,0.540000,0.539700,0.539500,0.539400,0.539300,0.539300,0.539300,0.539300,1.000000,0.496500,0.496500,1.000000,0.292400,0.291300,0.291700,0.291700,0.291700,0.291700,0.291600,0.291600,0.291400,0.291300,0.291200,0.291200,0.291200,0.290800,0.290600,0.290500,0.290400,0.290400,0.290300,0.290200,0.290100,0.290100,0.290000,0.290000,0.290000,0.289800,0.289700,0.289600,0.289400,0.289200,0.289100,0.289000,0.289000,0.289000,0.289000,0.289000,0.288600,0.288500,0.288400,0.288200,0.288100,0.288000,0.287900,0.287900,0.287700,0.287600,0.287500,0.286500,0.286500,0.286600,0.286900,0.287200,0.287300,0.287300,0.287300,0.287200,0.287100,0.286900,0.286800,0.286600,0.286300,0.286100,0.285500,0.285400,0.285300,0.285300,0.285300,0.285300,0.285300,0.285200,0.285100,0.285000,0.284900,0.284900,0.284900,0.284800,0.284800,0.284700,0.284600,0.284500,0.284400,0.284300,0.283800,0.283500,0.283400,0.283200,0.283100,0.283000,0.282800,0.282500,0.282300,0.282300,0.282400,1.000000,1.000000,0.358200,0.356500,0.356500,0.356500,1.000000,1.000000,1.000000,1.000000,1.000000,1.000000,0.483300,0.483300,0.483400,0.483400,0.483400,0.482300,0.482300,0.482300,0.482300,0.482300,0.482200,0.482100,0.482100,0.482000,0.481300,0.481300,0.481300,0.481400,0.481400,0.481400,0.481300,1.000000,1.000000,1.000000,1.000000,1.000000,1.000000,1.000000,1.000000,1.000000,0.478600,0.478700,0.478700,0.478900,0.479000,0.479000,0.479200,0.479200,0.479200
0.760900,0.760900,1.000000,1.000000,1.000000,1.000000,1.000000,1.000000,1.000000,1.000000,0.758300,1.000000,1.000000,1.000000,1.000000,1.000000,0.759500,0.759500,1.000000,0.757300,0.757200,0.756500,0.756000,0.755800,1.000000,0.755600,0.756400,0.755400,1.000000,1.000000,1.000000,1.000000,1.000000,1.000000,1.000000,1.000000,1.000000,0.549500,0.549100,1.000000,1.000000,1.000000,1.000000,1.000000,0.546800,0.548400,0.548400,0.548400,1.000000,0.549000,1.000000,1.000000,1.000000,1.000000,1.000000,0.547600,0.547500,0.546800,0.546800,0.546800,0.547000,0.547100,0.544700,0.544700,0.544600,0.544600,0.544600,0.544600,0.545900,0.547100,0.547100,0.546800,0.545700,0.543500,0.543500,1.000000,0.544500,0.545000,0.544700,0.544500,0.542500,0.542400,0.542200,0.542200,0.542200,0.542200,0.542200,0.542400,0.542500,0.542600,0.542000,0.541200,0.540000,0.540000,0.539900,0.539900,0.539900,0.539900,0.540900,0.540800,0.540300,0.539700,0.539600,0.539500,0.539400,0.539400,0.539400,0.539400,1.000000,0.496500,0.496500,0.291200,0.291200,0.291200,0.291300,0.291400,0.291500,0.291600,0.291600,0.291700,0.291600,0.291500,0.291400,0.291400,0.291300,0.290500,0.290500,0.290400,0.290400,0.290400,0.290300,0.290200,0.290100,0.290100,0.290000,0.290000,0.289900,0.289800,0.289700,0.289600,0.289500,0.289400,0.289400,0.289300,0.289300,0.289200,0.289100,0.289000,0.288600,0.288400,0.288300,0.288000,0.288000,0.287800,0.287800,0.287800,0.287700,0.287600,0.286600,0.286500,0.286500,0.286600,0.286900,0.287100,0.287200,0.287300,0.287300,0.287200,0.287100,0.286900,0.286800,0.286700,0.286400,0.286100,0.285400,0.285300,0.285200,0.285200,0.285200,0.285200,0.285200,0.285200,0.285100,0.285000,0.285000,0.284900,0.284900,0.284900,0.284900,0.284800,0.284700,0.284600,0.284400,0.284300,0.283800,0.283400,0.283300,0.283200,0.283100,0.283100,0.283100,0.283100,0.282400,0.282400,0.282400,1.000000,1.000000,0.356500,0.356500,0.356500,0.356500,0.360100,0.360000,0.358600,1.000000,1.000000,1.000000,1.000000,0.483300,0.483300,0.483300,0.483200,0.482300,0.482200,0.482200,0.482200,0.482100,0.482100,0.481800,0.481700,0.481300,0.481100,0.481200,0.481200,0.481300,0.481300,0.479600,0.479600,0.478300,0.478300,1.000000,1.000000,1.000000,1.000000,1.000000,1.000000,1.000000,0.478700,0.478700,0.478700,0.478700,0.478700,0.478700,0.478700,0.479000,0.479200
0.760900,0.760900,1.000000,1.000000,1.000000,1.000000,1.000000,1.000000,1.000000,1.000000,0.758300,0.758300,1.000000,1.000000,1.000000,1.000000,0.759500,0.759500,1.000000,0.757300,0.757000,0.756200,0.756000,0.753600,0.753600,0.755600,0.756400,0.755400,1.000000,1.000000,1.000000,1.000000,1.000000,1.000000,1.000000,1.000000,0.549600,0.549500,0.549200,1.000000,1.000000,1.000000,1.000000,1.000000,0.546800,0.548400,0.548400,0.548500,0.549000,0.549000,1.000000,0.548900,0.547600,0.547600,0.547600,0.547600,0.547600,0.546800,0.546500,0.546200,0.546900,0.546000,0.544700,0.544700,0.544600,0.544600,0.544500,0.544600,0.545800,0.547000,0.547000,0.545900,0.544600,0.543500,0.543500,0.543500,0.544400,0.544500,0.544500,0.544000,0.540900,0.540800,0.540800,0.540800,0.541000,0.541400,0.542000,0.542400,0.542500,0.542400,0.541100,0.541100,0.540000,0.540000,0.540000,0.540000,0.540000,0.540800,0.540800,0.540800,0.540200,0.539900,0.539700,0.539600,0.539500,0.539500,0.539500,0.539500,1.000000,0.496600,0.496600,0.291200,0.291200,0.291200,0.291300,0.291400,0.291400,0.291600,0.291600,0.291800,0.291600,0.291600,0.291400,0.291400,0.291300,0.290400,0.290400,0.290400,0.290400,0.290300,0.290300,0.290300,0.290200,0.290100,0.290100,0.290000,0.289900,0.289800,0.289700,0.289600,0.289500,0.289500,0.289400,0.289400,0.289300,0.289300,0.289100,0.289000,0.288600,0.288400,0.288300,0.288000,0.287900,0.287800,0.287800,0.287800,0.287700,0.287600,0.286600,0.286600,0.286600,0.286600,0.286900,0.287000,0.287200,0.287300,0.287300,0.287300,0.287100,0.286900,0.286800,0.286700,0.286300,0.285600,0.285400,0.285300,0.285200,0.285200,0.285200,0.285200,0.285200,0.285200,0.285100,0.285100,0.285000,0.284900,0.284900,0.284900,0.284800,0.284800,0.284700,0.284600,0.284500,0.284400,0.283500,0.283300,0.283200,0.283200,0.283200,0.283100,0.283100,0.283100,0.283000,0.282700,1.000000,1.000000,0.356600,0.356500,0.356500,0.356500,0.356500,0.360000,0.359700,0.358600,1.000000,1.000000,1.000000,0.482500,0.483300,0.483300,0.483300,0.483200,0.482900,0.482200,0.482100,0.482000,0.482000,0.482000,0.481700,0.481500,0.481200,0.481000,0.481000,0.481200,0.481200,0.481200,0.479600,0.479600,0.478300,0.478300,1.000000,1.000000,1.000000,1.000000,1.000000,1.000000,1.000000,0.478800,0.478800,0.478600,0.478600,0.478600,0.478500,0.478400,0.478200,0.479200
0.756500,0.756500,1.000000,1.000000,1.000000,1.000000,1.000000,1.000000,1.000000,1.000000,0.759100,0.758300,1.000000,1.000000,1.000000,1.000000,1.000000,1.000000,1.000000,1.000000,1.000000,0.755600,0.753900,0.753500,0.753500,1.000000,1.000000,1.000000,1.000000,1.000000,1.000000,1.000000,1.000000,1.000000,1.000000,1.000000,0.549500,0.549500,0.549200,1.000000,1.000000,1.000000,1.000000,1.000000,1.000000,0.548400,0.548500,0.548700,0.549000,0.549000,0.549000,0.548900,0.547500,0.547500,0.547600,0.547500,0.547500,0.545800,0.545800,0.545900,0.546000,0.546000,0.544800,0.544700,0.544500,0.543600,0.543600,0.543800,0.545700,0.545700,0.545700,0.544600,0.543700,0.543600,0.543500,0.543500,0.544500,0.544400,0.542700,0.541000,0.540900,0.540800,0.540800,0.540800,0.540900,0.541000,0.541300,0.542100,0.541500,0.541200,0.541000,0.541000,0.540000,0.540000,0.540100,0.540300,0.540600,0.540700,0.540800,0.540200,0.540100,0.540100,0.540000,0.539900,0.539600,0.539600,0.539600,0.539600,1.000000,0.497900,0.496900,1.000000,0.291200,0.291300,0.291300,0.291300,0.291400,0.291500,0.291700,0.291800,0.291600,0.291500,0.291300,0.291200,0.290600,0.290300,0.290300,0.290300,0.290300,0.290300,0.290300,0.290300,0.290200,0.290200,0.290100,0.290000,0.289900,0.289700,0.289700,0.289600,0.289600,0.289600,0.289500,0.289400,0.289400,0.289300,0.289000,0.288900,0.288600,0.288400,0.288300,0.288000,0.287900,0.287800,0.287800,0.287800,0.287800,0.287800,0.287600,0.287000,0.286900,0.286900,0.287000,0.287000,0.287200,0.287200,0.287300,0.287200,0.287100,0.287000,0.286900,0.286800,0.285600,0.285500,0.285400,0.285300,0.285200,0.285200,0.285200,0.285200,0.285200,0.285200,0.285200,0.285100,0.285000,0.284800,0.284700,0.284600,0.284400,0.284200,0.284500,0.284500,0.284400,0.284300,0.283300,0.283200,0.283200,0.283200,0.283200,0.283200,0.283200,0.283100,0.283000,0.283000,0.283000,0.282900,0.355800,0.355800,0.355900,0.356600,0.359200,0.360000,0.359100,0.358600,1.000000,1.000000,1.000000,0.482000,0.481900,0.481900,0.481900,0.483100,0.482700,0.482000,0.481900,0.481800,0.481800,0.481800,0.481600,0.481500,0.480900,0.480900,0.480900,0.481000,0.481200,0.481200,0.480000,0.479600,0.478400,0.478200,1.000000,1.000000,1.000000,1.000000,1.000000,1.000000,1.000000,0.478800,0.478700,0.478300,0.477900,0.477900,0.478000,0.478100,0.476600,0.476800
1.000000,1.000000,1.000000,1.000000,1.000000,1.000000,1.000000,1.000000,1.000000,1.000000,0.759100,0.758300,1.000000,1.000000,1.000000,1.000000,1.000000,1.000000,1.000000,1.000000,0.755900,0.755800,0.753500,0.753600,1.000000,1.000000,1.000000,1.000000,1.000000,1.000000,1.000000,1.000000,1.000000,0.753300,1.000000,1.000000,0.549500,0.549500,0.547500,0.547500,1.000000,1.000000,1.000000,1.000000,0.545300,0.546100,0.548500,0.548600,0.549000,0.549000,0.549000,0.548900,0.547400,0.547500,0.547500,0.547500,0.547500,0.545800,0.545800,0.545900,0.546000,0.546000,0.545300,0.545300,0.545300,0.545300,0.543600,0.543700,0.545600,0.545600,0.545600,0.544700,0.544600,0.543700,0.544600,0.544500,0.544500,0.544400,0.542600,0.541000,0.540900,0.540900,0.540900,0.540800,0.540900,0.541000,0.541300,0.541400,0.541200,0.541000,0.541000,0.541000,0.540000,0.540100,0.540100,0.540400,0.540400,0.540400,0.540000,0.540000,0.540000,0.540100,0.540100,0.540000,0.539800,0.539800,0.539800,0.539800,1.000000,0.497200,0.496100,1.000000,1.000000,0.291300,0.291300,0.291300,0.291400,0.292600,0.292400,0.291900,0.291600,0.291400,0.291100,0.291000,0.290400,0.290300,0.290200,0.290200,0.290300,0.290300,0.290300,0.290400,0.290300,0.290300,0.290200,0.290000,0.289900,0.289700,0.289600,0.289600,0.289600,0.289600,0.289600,0.289600,0.289400,0.289200,0.288900,0.288800,0.288600,0.288400,0.288300,0.288000,0.287900,0.287800,0.287800,0.287800,0.287800,0.287800,0.287800,0.287200,0.287000,0.286900,0.286900,0.286900,0.287000,0.287000,0.287100,0.287100,0.287000,0.287000,0.286900,0.285500,0.285500,0.285400,0.285400,0.285300,0.285200,0.285200,0.285200,0.285200,0.285200,0.285200,0.285200,0.285100,0.284900,0.284800,0.284500,0.284400,0.284200,0.284100,0.284000,0.284000,0.283800,0.283600,0.283400,0.283300,0.283200,0.283200,0.283200,0.283200,0.283100,0.283100,0.283000,0.283000,0.283000,1.000000,1.000000,0.355800,0.355800,0.357100,0.357400,0.359200,0.358800,0.356600,0.357100,0.355800,1.000000,0.481800,0.481800,0.481800,0.481800,0.481800,0.481900,0.481600,0.481500,0.481500,0.481500,0.481600,0.481500,0.480700,0.480700,0.480700,0.480700,0.480700,0.480800,0.480800,0.480700,0.479600,0.478400,0.478300,1.000000,1.000000,1.000000,1.000000,1.000000,1.000000,1.000000,0.478700,0.478000,0.477800,0.477800,0.477800,0.477700,0.476500,0.476400,0.476400
1.000000,1.000000,1.000000,1.000000,1.000000,1.000000,1.000000,1.000000,1.000000,1.000000,0.763300,0.760500,1.000000,1.000000,1.000000,1.000000,1.000000,1.000000,1.000000,0.755900,0.755900,0.753900,0.753500,1.000000,1.000000,1.000000,1.000000,1.000000,1.000000,1.000000,1.000000,1.000000,0.753400,0.753300,0.754700,1.000000,1.000000,1.000000,0.547500,0.545800,1.000000,1.000000,1.000000,1.000000,0.545300,0.545600,1.000000,1.000000,1.000000,1.000000,1.000000,1.000000,0.547500,0.547500,0.547500,0.547600,0.547500,0.545800,0.545800,0.546000,0.546000,0.546000,0.545300,0.545300,0.545300,0.543700,0.543700,0.543700,0.544200,0.545500,0.545500,0.545000,0.544800,0.544700,0.544600,0.544500,0.544400,0.544400,0.542600,0.542400,0.542400,0.541000,0.540900,0.540800,0.540900,0.541000,0.541300,0.541300,0.541000,0.540900,0.540900,0.540900,0.541000,0.541100,0.540400,0.540400,0.540300,0.540200,0.540000,0.539800,0.539900,0.540000,0.540100,0.540200,0.540300,0.540400,0.540500,0.540500,1.000000,0.496200,0.494700,1.000000,0.291600,0.291600,0.291500,0.292900,0.292700,0.292500,0.292200,0.291900,0.291200,0.291000,0.290800,0.290600,0.290500,0.290300,0.290300,0.290300,0.290300,0.290300,0.290300,0.290300,0.290300,0.290200,0.290100,0.289800,0.289700,0.289600,0.289600,0.289600,0.289600,0.289600,0.289600,0.289500,0.289300,0.289000,0.288800,0.288700,0.288500,0.288400,0.288300,0.288000,0.287900,0.287800,0.287800,0.287800,0.287800,0.287800,0.287700,0.287000,0.286900,0.286800,0.286800,0.286800,0.286800,0.286900,0.287000,0.287000,0.286900,0.286900,0.285500,0.285500,0.285500,0.285500,0.285400,0.285400,0.285300,0.285200,0.285200,0.285200,0.285100,0.285100,0.285100,0.285000,0.284700,0.284600,0.284300,0.284200,0.284100,0.284000,0.283900,0.283800,0.283700,0.283600,0.283400,0.283300,0.283200,0.283100,0.283100,0.283100,0.282900,0.282900,0.282800,0.282800,0.282800,0.283400,1.000000,1.000000,1.000000,1.000000,1.000000,1.000000,0.356800,0.355000,1.000000,1.000000,1.000000,0.481800,0.481800,0.481800,0.481800,0.481800,0.481800,0.481400,0.481200,0.481200,0.480800,0.480800,0.480700,0.480700,0.480700,0.480700,0.480700,0.480700,0.480700,0.480700,0.480700,0.480600,0.478800,0.478700,1.000000,1.000000,1.000000,1.000000,1.000000,1.000000,1.000000,0.478400,0.477800,0.477600,0.477600,0.477500,0.476600,0.476400,0.476400,0.476300
1.000000,1.000000,1.000000,1.000000,1.000000,1.000000,1.000000,1.000000,1.000000,1.000000,1.000000,1.000000,1.000000,1.000000,1.000000,1.000000,1.000000,1.000000,0.750400,0.755900,0.755900,0.753900,0.753900,1.000000,1.000000,1.000000,1.000000,1.000000,1.000000,1.000000,1.000000,1.000000,1.000000,1.000000,1.000000,1.000000,1.000000,0.547500,0.545800,1.000000,1.000000,1.000000,1.000000,1.000000,1.000000,0.545400,1.000000,1.000000,1.000000,1.000000,1.000000,1.000000,1.000000,1.000000,1.000000,1.000000,0.547600,0.547600,0.546500,0.546400,0.546800,0.547800,0.545300,0.545300,0.545200,0.543900,0.543800,0.543800,0.543900,0.545500,0.545400,0.545200,0.545000,0.544700,0.544600,0.544500,0.544400,0.544300,0.544100,0.543600,0.542400,0.542400,0.540900,0.540900,0.540900,0.541100,0.541200,0.541200,0.540700,0.540700,0.540700,0.540700,0.540900,0.541000,0.540600,0.540400,0.540200,0.540000,0.539900,0.539700,0.539700,0.539800,0.540100,0.540300,0.540400,0.540500,0.540500,0.540500,1.000000,0.494800,0.493900,1.000000,0.291800,0.291800,0.292900,0.292900,0.292300,0.292100,0.292000,0.291800,0.291600,0.291000,0.290700,0.290600,0.290500,0.290400,0.290400,0.290400,0.290300,0.290300,0.290300,0.290300,0.290200,0.290200,0.289900,0.289600,0.289600,0.289600,0.289500,0.289600,0.289600,0.289600,0.289600,0.289500,0.289200,0.288900,0.288800,0.288600,0.288400,0.288300,0.288200,0.288000,0.287900,0.287800,0.287700,0.287700,0.287700,0.287600,0.287000,0.286900,0.286700,0.286700,0.286600,0.286500,0.286600,0.286600,0.286600,0.286700,0.285500,0.285400,0.285400,0.285400,0.285400,0.285400,0.285400,0.285300,0.285200,0.285100,0.285100,0.285000,0.285000,0.285000,0.284900,0.284900,0.284700,0.284600,0.284300,0.284200,0.284000,0.284000,0.283900,0.283700,0.283600,0.283600,0.283400,0.283400,0.283300,0.283200,0.283000,0.282900,0.282800,0.282800,0.282700,0.282700,0.282700,0.283700,1.000000,1.000000,1.000000,1.000000,1.000000,1.000000,1.000000,1.000000,1.000000,1.000000,1.000000,0.481800,0.481800,0.481800,0.481800,0.481800,0.481000,0.480800,0.480800,0.480700,0.480700,0.480700,0.480700,0.480700,0.480700,0.480700,0.480700,0.480700,0.480700,0.480700,0.480700,0.480700,0.478800,0.478800,0.478800,1.000000,1.000000,1.000000,1.000000,1.000000,0.478100,0.477800,0.477700,0.477600,0.477500,0.477400,0.477000,0.476400,0.476300,0.476300
1.000000,1.000000,1.000000,1.000000,1.000000,1.000000,1.000000,1.000000,1.000000,1.000000,1.000000,1.000000,1.000000,1.000000,1.000000,1.000000,1.000000,1.000000,1.000000,0.755900,0.755900,0.753900,0.753900,1.000000,1.000000,1.000000,1.000000,1.000000,1.000000,1.000000,1.000000,1.000000,1.000000,1.000000,1.000000,1.000000,1.000000,1.000000,1.000000,1.000000,1.000000,1.000000,1.000000,1.000000,1.000000,1.000000,1.000000,0.546900,1.000000,1.000000,1.000000,1.000000,1.000000,1.000000,1.000000,1.000000,0.547600,0.547600,0.547600,0.547600,0.547800,0.547800,0.547300,0.545200,0.544400,0.544000,0.543900,0.543900,0.543900,0.544000,0.544600,0.545200,0.545000,0.543800,0.543900,0.543900,0.544100,0.544100,0.544100,0.542800,0.542500,0.542400,0.540900,0.540900,0.540900,0.540900,0.541000,0.540800,0.540600,0.540600,0.540600,0.540600,0.540700,0.540800,0.540500,0.540300,0.540100,0.540000,0.539900,0.539700,0.539700,0.539800,0.539900,0.540400,0.540500,0.540500,0.540500,0.540500,1.000000,0.493900,0.493900,0.492800,0.291900,0.291900,0.291900,0.292800,0.292100,0.292000,0.292000,0.291700,0.291600,0.290900,0.290600,0.290600,0.290500,0.290500,0.290500,0.290400,0.290400,0.290300,0.290200,0.290200,0.290100,0.289900,0.289700,0.289600,0.289500,0.289500,0.289500,0.289500,0.289500,0.289500,0.289500,0.289400,0.289000,0.288800,0.288700,0.288500,0.288300,0.288200,0.288100,0.287900,0.287900,0.287700,0.287700,0.287600,0.287500,0.287200,0.286900,0.286800,0.286700,0.286600,0.286500,0.286400,0.286400,0.286400,0.286500,0.286600,0.285400,0.285400,0.285400,0.285400,0.285400,0.285400,0.285300,0.285300,0.285100,0.285000,0.285000,0.285000,0.285000,0.284900,0.284800,0.284800,0.284600,0.284500,0.284200,0.284000,0.284000,0.283900,0.283800,0.283700,0.283600,0.283500,0.283400,0.283400,0.283200,0.283100,0.282900,0.282700,0.282700,0.282600,0.282600,0.282700,1.000000,1.000000,1.000000,1.000000,1.000000,1.000000,1.000000,1.000000,1.000000,1.000000,1.000000,1.000000,1.000000,0.481800,0.481800,0.481800,0.481800,0.481700,0.481000,0.480800,0.480800,0.480800,0.480800,0.480800,0.480800,0.480800,0.480800,0.480700,0.480700,0.480700,0.480700,0.480700,0.480700,0.480700,0.480500,0.480300,0.478800,1.000000,1.000000,1.000000,1.000000,1.000000,0.477800,0.477700,0.477600,0.477500,0.477400,0.477300,0.476800,0.476300,0.476300,0.476200
1.000000,1.000000,1.000000,1.000000,1.000000,1.000000,1.000000,1.000000,1.000000,1.000000,1.000000,1.000000,1.000000,1.000000,1.000000,1.000000,1.000000,1.000000,1.000000,1.000000,1.000000,1.000000,1.000000,1.000000,1.000000,1.000000,1.000000,1.000000,1.000000,1.000000,1.000000,1.000000,1.000000,1.000000,1.000000,1.000000,1.000000,1.000000,1.000000,1.000000,1.000000,1.000000,1.000000,1.000000,0.546700,0.546700,0.546800,0.546800,0.546800,1.000000,1.000000,1.000000,1.000000,1.000000,1.000000,0.546400,0.546400,0.546400,0.547600,0.547600,0.547700,0.547800,0.547800,0.547000,0.545000,0.544100,0.544000,0.543900,0.543900,0.543900,0.543900,0.543800,0.543800,0.542200,0.542200,0.542200,0.542200,0.544000,0.544000,0.542700,0.542600,0.542600,0.541000,0.540900,0.540900,0.540800,0.540800,0.540600,0.540600,0.540500,0.540500,0.540500,0.540600,0.540600,0.540500,0.540200,0.539900,0.539900,0.539800,0.539700,0.539700,0.539800,0.539800,0.540500,0.540500,0.540500,0.539600,0.539600,1.000000,0.493900,0.493900,0.493900,1.000000,0.291900,0.292000,0.292000,0.292000,0.292000,0.291900,0.291600,0.291500,0.290800,0.290600,0.290600,0.290500,0.290500,0.290600,0.290500,0.290400,0.290300,0.290200,0.290000,0.289900,0.289800,0.289600,0.289400,0.289300,0.289300,0.289300,0.289300,0.289300,0.289400,0.289400,0.289300,0.289000,0.288800,0.288600,0.288400,0.288300,0.288200,0.288000,0.287900,0.287800,0.287700,0.287600,0.287500,0.287300,0.287100,0.286900,0.286800,0.286700,0.286600,0.286500,0.286400,0.286400,0.286300,0.286100,0.285600,0.285400,0.285400,0.285300,0.285300,0.285300,0.285300,0.285200,0.285100,0.285000,0.284900,0.284900,0.284900,0.284900,0.284800,0.284800,0.284700,0.284600,0.284400,0.283900,0.283800,0.283800,0.283700,0.283700,0.283600,0.283500,0.283500,0.283400,0.283400,0.282900,0.282700,0.282600,0.282500,0.282500,0.282400,0.282500,0.282500,0.282600,1.000000,1.000000,1.000000,1.000000,1.000000,1.000000,1.000000,1.000000,1.000000,1.000000,1.000000,1.000000,0.481900,0.481900,0.481800,0.481800,0.481700,0.481600,0.480900,0.480900,0.480900,0.481000,0.480900,0.480900,0.480900,0.480900,0.482000,0.481900,0.481500,0.481400,0.481200,0.481200,0.481100,0.481100,0.481200,1.000000,1.000000,1.000000,1.000000,1.000000,1.000000,0.477500,0.477500,0.477400,0.477300,0.477200,0.476400,0.476200,0.476300,0.476300,0.476300
1.000000,1.000000,1.000000,1.000000,1.000000,1.000000,1.000000,1.000000,1.000000,1.000000,1.000000,1.000000,1.000000,1.000000,1.000000,1.000000,1.000000,1.000000,1.000000,1.000000,1.000000,1.000000,1.000000,1.000000,1.000000,1.000000,1.000000,1.000000,1.000000,1.000000,1.000000,1.000000,1.000000,0.758400,1.000000,1.000000,0.541800,0.541800,0.545600,0.545700,0.547400,0.547300,0.546900,0.546900,0.546800,0.546700,0.546800,0.546800,0.548200,1.000000,1.000000,1.000000,1.000000,1.000000,1.000000,0.546300,0.546400,0.546400,0.546300,0.546300,0.547500,0.547400,0.547100,1.000000,0.546800,0.546800,1.000000,0.545200,0.543900,0.543900,0.543900,0.543800,0.543800,0.542200,0.542200,0.542100,0.542000,0.542700,0.542700,0.542700,0.542700,0.542700,0.542100,0.541000,0.540900,0.540800,0.540600,0.540500,0.540400,0.540400,0.540400,0.540400,0.540400,0.540300,0.540100,0.539900,0.539800,0.539700,0.539800,0.539700,0.539700,0.539700,0.539700,0.538400,0.538300,0.539200,0.538800,0.538800,1.000000,0.493900,0.493900,0.493900,1.000000,0.291900,0.292000,0.292000,0.292000,0.291900,0.291900,0.291600,0.291500,0.291100,0.290800,0.290600,0.290600,0.290600,0.290600,0.290600,0.290500,0.290300,0.290100,0.290000,0.289900,0.289800,0.289700,0.289400,0.289200,0.289100,0.289200,0.289200,0.289300,0.289300,0.289200,0.289200,0.288800,0.288600,0.288500,0.288400,0.288300,0.288100,0.288000,0.287700,0.287600,0.287600,0.287500,0.287400,0.287200,0.287100,0.286900,0.286800,0.286700,0.286600,0.286500,0.286300,0.286200,0.285900,0.285700,0.285600,0.285400,0.285400,0.285300,0.285200,0.285200,0.285100,0.285000,0.284900,0.284900,0.284900,0.284900,0.284900,0.284900,0.284800,0.284800,0.284700,0.284600,0.284300,0.283800,0.283800,0.283700,0.283600,0.283600,0.283500,0.283500,0.283400,0.283400,0.283300,0.282800,0.282700,0.282600,0.282400,0.282400,0.282400,0.282400,0.282400,0.282500,1.000000,0.482100,0.482100,1.000000,1.000000,0.483200,0.483200,1.000000,0.358800,1.000000,1.000000,1.000000,0.481900,0.481900,0.481900,0.481800,0.481700,0.481600,0.481500,0.481300,0.481200,0.481000,0.481000,0.481000,0.481000,0.481500,0.482000,0.482000,0.481400,0.481400,0.481200,0.481200,0.481200,0.481200,0.481200,0.481200,1.000000,1.000000,1.000000,1.000000,0.477500,0.477500,0.477400,0.477200,0.477200,0.476600,0.476000,0.476000,0.476300,0.476400,0.476400
1.000000,1.000000,1.000000,1.000000,1.000000,1.000000,1.000000,1.000000,1.000000,1.000000,1.000000,1.000000,1.000000,1.000000,1.000000,1.000000,1.000000,1.000000,1.000000,1.000000,1.000000,1.000000,1.000000,1.000000,1.000000,1.000000,1.000000,1.000000,1.000000,1.000000,1.000000,1.000000,0.756900,1.000000,0.756900,0.537300,0.537300,0.545500,0.545800,0.547400,0.547400,0.547200,0.547000,0.544500,0.544400,0.544400,0.544400,0.545800,0.546800,1.000000,1.000000,0.547900,0.545900,0.545800,0.545700,0.545700,0.546200,0.546300,0.546300,0.546300,0.545300,0.545300,0.545300,0.545300,0.546700,0.547600,0.547600,0.547500,0.545200,0.543900,0.543900,0.543800,0.543000,0.542200,0.542000,0.542000,0.541800,0.542300,0.542700,0.542700,0.542800,0.542800,0.542800,0.541200,0.541100,0.540800,0.540500,0.540400,0.540300,0.540300,0.540400,0.540400,0.540400,0.540200,0.540100,0.539800,0.539700,0.539700,0.539700,0.539700,0.539700,0.539700,0.538400,0.538400,0.538200,0.538100,0.537900,0.537800,1.000000,0.494000,0.494000,0.494000,1.000000,0.291800,0.291800,0.291900,0.291900,0.291800,0.291800,0.291600,0.291400,0.291200,0.291000,0.290600,0.290600,0.290600,0.290600,0.290500,0.290400,0.290300,0.290000,0.289900,0.289900,0.289800,0.289800,0.289000,0.288900,0.288900,0.288900,0.289000,0.289000,0.289200,0.289200,0.289100,0.288700,0.288600,0.288500,0.288300,0.288300,0.288100,0.287900,0.287700,0.287600,0.287500,0.287400,0.287400,0.287200,0.287100,0.286900,0.286800,0.286700,0.286600,0.286500,0.286300,0.286100,0.285900,0.285700,0.285700,0.285500,0.285400,0.285300,0.285200,0.285100,0.285000,0.284900,0.284800,0.284800,0.284800,0.284900,0.284900,0.284900,0.284900,0.284800,0.284700,0.284500,0.284200,0.283700,0.283600,0.283600,0.283500,0.283400,0.283400,0.283500,0.283400,0.283400,0.283200,0.282700,0.282600,0.282500,0.282300,0.282200,0.282200,0.282200,0.282300,0.282400,1.000000,0.482100,0.482100,0.482200,1.000000,0.483200,0.483100,1.000000,1.000000,0.358800,0.358800,1.000000,0.482000,0.481900,0.481900,0.481800,0.481700,0.481600,0.481500,0.481400,0.481300,0.481100,0.481000,0.481000,0.481000,0.481900,0.482000,0.481900,0.480100,0.480100,0.480200,0.481200,0.481200,0.481100,0.481200,0.481200,1.000000,1.000000,1.000000,1.000000,0.477400,0.477200,0.477200,0.476800,0.476800,0.475900,0.475900,0.475900,0.476400,0.476400,0.476400
1.000000,1.000000,1.000000,1.000000,1.000000,1.000000,1.000000,1.000000,1.000000,1.000000,1.000000,1.000000,1.000000,1.000000,1.000000,1.000000,1.000000,1.000000,1.000000,1.000000,1.000000,1.000000,1.000000,1.000000,1.000000,1.000000,1.000000,1.000000,1.000000,1.000000,1.000000,1.000000,0.756900,0.756900,0.756900,1.000000,1.000000,1.000000,0.545400,0.547400,0.547200,0.547100,0.547000,0.544500,0.544400,1.000000,0.544400,0.545900,0.546700,0.547900,1.000000,0.547900,0.547100,0.545600,0.545600,0.545500,0.546200,0.546200,0.546300,0.545200,0.545200,0.545200,0.545200,0.545200,0.546600,0.547600,1.000000,0.546200,0.545200,0.543900,0.543900,0.542900,0.542800,0.542800,0.542000,0.541800,0.541600,0.541600,0.541500,0.541500,0.541500,0.542700,0.541400,0.541300,0.541200,0.540700,0.540200,0.540100,0.540000,0.540000,0.540000,0.540200,0.540200,0.540100,0.540000,0.539900,0.539800,0.539700,0.539700,0.539700,0.539600,0.539600,0.538400,0.538400,0.538200,0.538100,0.537800,0.537800,1.000000,1.000000,0.494000,0.494000,1.000000,0.291800,0.291800,0.291800,0.291800,0.291800,0.291700,0.291500,0.291400,0.291200,0.291000,0.290900,0.290700,0.290600,0.290600,0.290500,0.290400,0.290200,0.290000,0.289900,0.289900,0.289800,0.289800,0.289000,0.288800,0.288800,0.288800,0.288900,0.288900,0.289000,0.289000,0.289000,0.288700,0.288500,0.288400,0.288300,0.288200,0.288100,0.287900,0.287600,0.287500,0.287400,0.287400,0.287300,0.287100,0.287000,0.286800,0.286700,0.286600,0.286600,0.286500,0.286300,0.286100,0.285900,0.285800,0.285700,0.285500,0.285400,0.285300,0.285200,0.285100,0.284900,0.284800,0.284800,0.284800,0.284800,0.284900,0.285000,0.285100,0.285000,0.284900,0.284700,0.284400,0.284400,0.283800,0.283600,0.283500,0.283400,0.283400,0.283400,0.283500,0.283500,0.283500,0.283400,0.282700,0.282600,0.282400,0.282200,0.282100,0.282000,0.282100,0.282100,0.282200,1.000000,1.000000,0.482100,1.000000,0.482200,0.482200,1.000000,1.000000,1.000000,1.000000,0.357400,1.000000,1.000000,1.000000,1.000000,1.000000,1.000000,0.481600,0.481500,0.481400,0.481300,0.481100,0.480700,0.480400,1.000000,0.480700,0.480800,0.480000,0.480000,0.480000,0.480000,0.480000,0.481000,0.481000,1.000000,1.000000,1.000000,1.000000,1.000000,1.000000,1.000000,0.477100,0.477000,0.476700,0.476600,0.476000,0.475900,0.475800,0.475800,0.476600,0.476600
1.000000,1.000000,1.000000,1.000000,1.000000,1.000000,1.000000,1.000000,1.000000,1.000000,1.000000,1.000000,1.000000,1.000000,1.000000,1.000000,1.000000,1.000000,1.000000,1.000000,1.000000,1.000000,1.000000,1.000000,1.000000,1.000000,1.000000,1.000000,1.000000,1.000000,1.000000,1.000000,1.000000,0.755300,1.000000,1.000000,1.000000,1.000000,1.000000,1.000000,0.547000,0.547000,0.547000,0.547000,0.546000,0.544400,0.545900,0.546000,0.546500,0.546700,0.547900,0.546900,0.546100,0.545600,0.545400,0.545300,0.545400,0.546200,0.546300,0.545200,0.545000,0.545000,0.545000,0.545000,0.545100,0.546400,0.546200,0.543900,0.543900,0.543800,0.543800,0.542600,0.542700,0.542700,0.542400,0.541700,0.541600,0.541500,0.541500,0.541500,0.541400,0.541400,0.541400,0.541300,0.541300,0.541000,0.540100,0.540000,0.539900,0.539900,0.539900,0.540000,0.540200,0.540100,0.540000,0.539900,0.539900,0.539800,0.539700,0.539600,0.539600,0.538600,0.538500,0.538400,0.538300,0.538100,0.537800,0.537800,1.000000,0.495200,0.495200,0.495200,1.000000,1.000000,0.291100,0.291600,0.291600,0.291600,0.291600,0.291500,0.291400,0.291200,0.291100,0.291000,0.290800,0.290600,0.290500,0.290300,0.290200,0.290100,0.289900,0.289800,0.289700,0.289700,0.289700,0.289600,0.288800,0.288800,0.288800,0.288800,0.288800,0.288900,0.288900,0.288900,0.288700,0.288500,0.288400,0.288200,0.288200,0.288100,0.288000,0.287700,0.287400,0.287300,0.287300,0.287200,0.287000,0.287000,0.286800,0.286700,0.286600,0.286600,0.286500,0.286300,0.286200,0.285900,0.285800,0.285800,0.285700,0.285600,0.285400,0.285300,0.285100,0.284900,0.284800,0.284700,0.284800,0.284800,0.284900,0.285100,0.285100,0.285000,0.284700,0.284500,0.284400,0.284300,0.284000,0.283600,0.283500,0.283400,0.283400,0.283400,0.283500,0.283500,0.283500,0.283500,0.282800,0.282600,0.282300,0.282100,0.282000,0.281900,0.281900,0.282000,0.282100,0.282200,1.000000,1.000000,1.000000,1.000000,1.000000,1.000000,0.355700,0.355800,0.355700,0.356000,1.000000,1.000000,1.000000,1.000000,1.000000,1.000000,1.000000,1.000000,1.000000,1.000000,1.000000,1.000000,1.000000,1.000000,0.478700,0.480000,0.479900,0.479900,0.480000,0.480000,0.479900,0.480900,0.481000,1.000000,0.481900,1.000000,1.000000,1.000000,1.000000,0.477000,0.476900,0.476900,0.476600,0.476500,0.476000,0.475800,0.475700,0.475600,0.475500,0.475500
1.000000,1.000000,1.000000,1.000000,1.000000,1.000000,1.000000,1.000000,1.000000,1.000000,1.000000,1.000000,1.000000,1.000000,1.000000,1.000000,1.000000,0.755600,0.755600,0.749900,1.000000,1.000000,1.000000,1.000000,1.000000,1.000000,1.000000,1.000000,1.000000,1.000000,1.000000,1.000000,1.000000,1.000000,1.000000,1.000000,1.000000,1.000000,1.000000,0.546200,0.547000,0.547000,0.547000,0.547000,1.000000,0.546000,0.546100,0.546200,0.546500,0.546700,0.546800,0.546800,0.546100,0.545500,0.545200,0.544800,0.545200,0.547900,0.547900,0.546400,0.544900,0.544900,0.544900,0.544900,0.544900,0.545100,0.545000,0.543900,0.543800,0.543800,0.543700,0.542400,0.542400,0.542100,0.541700,0.541600,0.541500,0.541500,0.541500,0.541500,0.541400,0.541400,0.541400,0.541300,0.541200,0.541100,0.540000,0.539900,0.539900,0.539900,0.539900,0.540000,0.540100,0.540100,0.540000,0.539900,0.539900,0.539800,0.539700,0.539600,0.539600,0.538600,0.538500,0.538500,0.538400,0.539400,0.537800,0.537800,1.000000,0.495200,0.495200,0.495200,1.000000,0.291000,0.291000,0.291300,0.291400,0.291500,0.291500,0.291400,0.291400,0.291200,0.291100,0.291000,0.290800,0.290600,0.290500,0.290300,0.290200,0.290000,0.289800,0.289600,0.289600,0.289600,0.289600,0.289600,0.289500,0.288800,0.288800,0.288800,0.288800,0.288800,0.288900,0.288800,0.288600,0.288500,0.288300,0.288200,0.288100,0.288000,0.288000,0.287600,0.287400,0.287200,0.287200,0.287100,0.287000,0.286900,0.286700,0.286600,0.286600,0.286500,0.286500,0.286300,0.286200,0.286000,0.285900,0.285800,0.285800,0.285700,0.285500,0.285300,0.285200,0.284900,0.284800,0.284700,0.284700,0.284800,0.284900,0.285100,0.285200,0.284700,0.284400,0.284400,0.284300,0.284300,0.284100,0.284000,0.283500,0.283400,0.283400,0.283400,0.283500,0.283600,0.283600,0.283600,0.283000,0.282600,0.282200,0.282100,0.282000,0.281900,0.281900,0.282000,0.282100,0.282200,1.000000,1.000000,1.000000,0.361000,0.358900,1.000000,0.355700,0.355700,0.355700,0.356000,0.363000,0.363100,1.000000,1.000000,0.365300,0.367900,1.000000,1.000000,1.000000,1.000000,1.000000,1.000000,1.000000,1.000000,1.000000,0.478700,0.478700,0.478600,0.478500,0.478400,0.478400,0.479800,0.480900,0.481100,1.000000,1.000000,1.000000,1.000000,1.000000,0.477000,0.476900,0.476800,0.476600,0.476500,0.476000,0.475800,0.475700,0.475500,0.475500,0.475400
1.000000,1.000000,1.000000,1.000000,1.000000,1.000000,1.000000,1.000000,1.000000,1.000000,1.000000,1.000000,1.000000,1.000000,1.000000,1.000000,1.000000,1.000000,1.000000,1.000000,1.000000,1.000000,1.000000,1.000000,1.000000,1.000000,1.000000,1.000000,1.000000,1.000000,1.000000,1.000000,1.000000,1.000000,1.000000,1.000000,1.000000,1.000000,1.000000,0.547800,0.548300,0.548400,0.548600,1.000000,0.546100,0.546100,0.546200,0.546300,1.000000,0.546800,0.546800,0.546600,0.546100,0.544200,0.544100,0.544100,0.545100,0.546000,0.546400,0.546400,0.545000,0.545000,0.544900,0.544900,0.544800,0.544800,0.544200,0.542800,0.543800,0.543700,0.543600,0.541900,0.541900,0.541700,0.541600,0.541600,0.541400,0.541400,0.541400,0.541500,0.541400,0.541400,0.541300,0.541200,0.541200,0.541100,0.541100,0.539900,0.539800,0.539800,0.539800,0.539800,0.540000,0.540000,0.540000,0.540000,0.539900,0.539900,0.539600,0.538800,0.538700,0.538600,0.538600,0.538700,0.539000,0.540500,0.539300,0.539300,1.000000,0.495300,0.495300,0.495300,1.000000,0.291000,0.291000,0.291000,0.291200,0.291400,0.291400,0.291400,0.291400,0.291200,0.291100,0.291000,0.290700,0.290600,0.290400,0.290200,0.290100,0.290000,0.289600,0.289500,0.289300,0.289400,0.289500,0.289500,0.289500,0.289000,0.288800,0.288800,0.288700,0.288700,0.288600,0.288600,0.288400,0.288200,0.288100,0.288000,0.288000,0.287900,0.287500,0.287200,0.287200,0.287100,0.287000,0.286900,0.286800,0.286700,0.286500,0.286500,0.286400,0.286400,0.286400,0.286400,0.286300,0.286000,0.286000,0.285900,0.285800,0.285800,0.285700,0.285400,0.285200,0.284900,0.284800,0.284700,0.284700,0.284800,0.284900,0.285100,0.285200,0.284400,0.284400,0.284400,0.284300,0.284200,0.284100,0.284100,0.283900,0.283500,0.283500,0.283500,0.283500,0.283600,0.283600,0.283600,0.283500,0.282500,0.282300,0.282200,0.282400,0.282600,0.282600,0.282500,0.282300,0.282300,1.000000,0.361000,0.361000,0.359000,0.358900,1.000000,0.355600,0.355600,0.355600,0.358700,0.363000,0.363000,0.363000,0.363000,0.363000,0.365300,0.367900,0.370400,1.000000,1.000000,1.000000,1.000000,1.000000,1.000000,1.000000,0.478600,0.478300,0.478000,0.478000,0.478300,0.478400,0.479600,0.479600,0.480900,0.480900,1.000000,1.000000,1.000000,1.000000,1.000000,1.000000,0.476800,0.476600,0.476500,0.476200,0.475700,0.475600,0.475500,0.475500,0.475400
1.000000,1.000000,1.000000,1.000000,1.000000,1.000000,1.000000,1.000000,1.000000,1.000000,1.000000,1.000000,1.000000,1.000000,1.000000,1.000000,1.000000,1.000000,1.000000,1.000000,1.000000,1.000000,1.000000,1.000000,1.000000,1.000000,1.000000,1.000000,1.000000,1.000000,1.000000,1.000000,1.000000,1.000000,1.000000,1.000000,1.000000,0.547300,0.547300,0.547800,0.548300,0.548400,0.545900,0.545900,0.546000,0.546100,0.546400,0.546800,0.547400,0.547300,0.546700,0.546500,0.546200,0.543900,0.542900,0.542900,0.544900,0.546000,0.545900,0.545800,0.545500,0.545300,0.545000,0.544900,0.544500,0.544400,0.542800,0.542800,0.542800,0.543600,0.543600,0.541800,0.541800,0.541600,0.541600,0.541500,0.541400,0.541400,0.541400,0.541500,0.541400,0.541400,0.541300,0.541200,0.541200,0.541100,0.541000,0.539900,0.539700,0.539700,0.539700,0.539800,0.539900,0.540000,0.540100,0.540100,0.540100,0.540000,0.538800,0.538800,0.538700,0.538700,0.538700,0.538700,0.538800,0.539000,0.539100,0.539100,1.000000,0.495300,0.495300,1.000000,1.000000,0.291000,0.291000,0.291000,0.291100,0.291200,0.291300,0.291300,0.291300,0.291100,0.291000,0.291000,0.290700,0.290600,0.290200,0.290100,0.289900,0.289700,0.289300,0.289200,0.289100,0.289200,0.289300,0.289400,0.289400,0.289000,0.288800,0.288800,0.288600,0.288600,0.288600,0.288500,0.288300,0.288200,0.288100,0.287900,0.287900,0.287400,0.287200,0.287200,0.287000,0.287000,0.286900,0.286900,0.286700,0.286600,0.286500,0.286400,0.286400,0.286400,0.286400,0.286400,0.286400,0.286200,0.286100,0.286100,0.286000,0.285900,0.285700,0.285200,0.285100,0.284900,0.284800,0.284700,0.284700,0.284700,0.284800,0.285000,0.285100,0.285100,0.284300,0.284300,0.284300,0.284200,0.284200,0.284100,0.284000,0.283600,0.283500,0.283500,0.283400,0.283500,0.283500,0.283500,0.283400,0.282500,0.282300,0.282300,0.282500,0.282600,0.282600,0.282600,0.282500,0.282500,0.361100,0.361000,0.361000,0.359000,0.358900,0.358800,0.355500,0.355500,0.355500,0.358400,0.361200,0.362900,0.363000,0.363000,0.363000,0.365300,0.367900,0.369100,0.369100,0.370400,0.374900,0.375100,0.375100,1.000000,1.000000,1.000000,1.000000,0.477500,0.477600,0.477900,0.478300,0.478900,0.479100,0.479200,0.479200,1.000000,1.000000,1.000000,1.000000,0.478100,0.476900,0.476800,0.476700,0.476600,0.476400,0.476000,0.475600,0.475600,0.475600,0.475500
1.000000,1.000000,1.000000,1.000000,1.000000,1.000000,1.000000,1.000000,1.000000,1.000000,1.000000,1.000000,1.000000,1.000000,1.000000,1.000000,1.000000,1.000000,1.000000,1.000000,1.000000,1.000000,1.000000,1.000000,1.000000,1.000000,1.000000,1.000000,1.000000,1.000000,1.000000,1.000000,1.000000,1.000000,1.000000,1.000000,0.547200,0.547200,1.000000,0.547200,0.547200,0.545800,0.545800,1.000000,0.545900,0.546700,0.547300,0.547400,1.000000,0.547600,0.547700,0.547600,0.546300,0.543900,0.543200,0.543000,0.544800,0.546000,0.545900,0.545800,0.545600,0.545400,0.545200,0.544900,0.544400,0.544300,0.544200,0.542800,0.543800,0.543700,0.543600,0.541800,0.541600,0.541600,0.541600,0.541500,0.541400,0.541400,0.542300,0.542100,0.541400,0.541400,0.541300,0.541100,0.541100,0.540000,0.539900,0.539800,0.539600,0.539500,0.539300,0.539300,0.539300,0.539600,0.540100,0.540200,0.540200,0.540200,0.538800,0.538800,0.538700,0.538700,0.538800,0.538900,0.538900,0.539000,0.539000,0.539000,1.000000,0.495500,0.495400,1.000000,0.293800,0.291300,0.291000,0.291000,0.291100,0.291200,0.291200,0.291200,0.291200,0.291100,0.291000,0.291000,0.290800,0.290600,0.290200,0.290000,0.289800,0.289500,0.289200,0.289100,0.289100,0.289200,0.289400,0.289500,0.289500,0.288900,0.288800,0.288700,0.288600,0.288600,0.288500,0.288400,0.288300,0.288200,0.288000,0.287800,0.287600,0.287200,0.287100,0.287000,0.286900,0.286900,0.286800,0.286700,0.286600,0.286500,0.286400,0.286400,0.286400,0.286400,0.286400,0.286400,0.286400,0.286300,0.286200,0.286200,0.286100,0.286000,0.285400,0.285200,0.285100,0.285000,0.284900,0.284800,0.284800,0.284800,0.284800,0.285000,0.285000,0.284800,0.284300,0.284300,0.284300,0.284300,0.284200,0.284100,0.284000,0.283700,0.283600,0.283400,0.283400,0.283400,0.283400,0.283400,0.282600,0.282500,0.282500,0.282500,0.282600,0.282600,0.282600,0.282600,0.282600,0.282600,0.361200,0.361100,0.361100,0.360400,0.359200,0.358500,0.355500,0.355500,0.355500,0.356800,0.361000,0.361200,0.362900,0.362900,0.362900,0.366300,0.369000,0.369100,0.369100,0.369100,0.374800,0.375000,1.000000,1.000000,1.000000,1.000000,0.478200,0.477400,0.477400,0.477400,0.477500,0.478800,0.478900,0.479100,1.000000,1.000000,1.000000,1.000000,1.000000,1.000000,0.478100,0.477000,0.476900,0.476900,0.476900,0.476800,0.476700,0.476300,0.476100,0.475800
1.000000,1.000000,1.000000,1.000000,1.000000,1.000000,1.000000,1.000000,1.000000,1.000000,0.756900,0.756900,1.000000,0.756800,1.000000,1.000000,1.000000,1.000000,1.000000,1.000000,1.000000,1.000000,1.000000,1.000000,1.000000,1.000000,1.000000,1.000000,1.000000,1.000000,1.000000,1.000000,0.748500,0.752400,0.752400,1.000000,1.000000,0.547200,0.547200,0.545600,0.545700,0.545700,0.545800,1.000000,0.545800,0.545700,0.547300,0.547400,0.547600,0.547700,0.547700,0.547600,0.546300,0.543900,0.543800,0.543700,0.546000,0.545900,0.545900,0.545800,0.544000,0.544000,0.544000,0.544400,0.544300,0.544300,0.544200,0.543900,0.543800,0.543700,0.541800,0.541700,0.541600,0.541600,0.541600,0.542200,0.542400,0.542400,0.542400,0.542400,0.541300,0.541300,0.541200,0.541100,0.541000,0.539900,0.539800,0.539700,0.539500,0.539500,0.539300,0.539200,0.539200,0.539200,0.540100,0.540200,0.540200,0.540200,0.539900,0.539700,0.538800,0.538800,0.538900,0.539000,0.539000,0.539000,0.538000,0.537900,0.537000,0.495600,0.494500,0.494500,0.294300,0.291300,0.291100,0.291100,0.291100,0.291100,0.291100,0.291100,0.291100,0.291000,0.291000,0.291000,0.290800,0.290600,0.290000,0.289900,0.289600,0.289500,0.289200,0.289200,0.289100,0.289300,0.289500,0.289500,0.289500,0.288800,0.288800,0.288800,0.288700,0.288700,0.288600,0.288600,0.288400,0.288200,0.288100,0.287900,0.287400,0.287200,0.287100,0.287000,0.286900,0.286900,0.286800,0.286700,0.286600,0.286500,0.286400,0.286400,0.286400,0.286400,0.286400,0.286400,0.286400,0.286300,0.286300,0.286200,0.286100,0.286100,0.285400,0.285200,0.285200,0.285000,0.285000,0.284900,0.284900,0.284900,0.284900,0.284900,0.284400,0.284100,0.284200,0.284200,0.284300,0.284300,0.284200,0.284100,0.284000,0.283800,0.283600,0.283400,0.283300,0.283200,0.283000,0.282900,0.282600,0.282500,0.282500,0.282400,0.282400,0.282400,0.282400,0.282500,0.282600,0.282700,1.000000,1.000000,0.361200,0.361000,0.359800,0.357400,0.355000,0.355300,0.355200,0.356800,1.000000,0.361300,0.362900,0.362900,0.363900,1.000000,0.369000,0.369000,0.368900,0.368900,0.368600,0.372800,1.000000,1.000000,1.000000,1.000000,0.478300,0.477800,0.477300,0.477300,0.477300,0.478300,0.478800,0.478900,0.478900,1.000000,1.000000,1.000000,1.000000,1.000000,1.000000,0.477000,0.477000,0.477000,0.476900,0.476800,0.476600,0.476200,0.476000,0.475700
1.000000,1.000000,1.000000,1.000000,1.000000,1.000000,1.000000,1.000000,1.000000,1.000000,0.755400,0.755400,0.756900,1.000000,1.000000,1.000000,1.000000,1.000000,1.000000,1.000000,1.000000,1.000000,1.000000,1.000000,1.000000,1.000000,1.000000,1.000000,1.000000,1.000000,1.000000,1.000000,0.752200,0.752300,0.752400,1.000000,1.000000,0.545600,0.545600,0.545400,0.545600,0.545700,0.545800,0.545100,0.545100,0.545000,0.545100,0.545100,0.545200,0.545200,0.547600,0.547600,0.546300,0.546200,0.544100,0.544500,0.546000,0.546200,0.545900,0.545600,0.544000,0.544000,0.543900,0.543900,0.542600,0.542700,0.544200,0.544000,0.543900,0.541900,0.541700,0.541700,0.541500,0.541500,0.542100,0.542300,0.542400,0.542400,0.542400,0.541400,0.541200,0.541200,0.541100,0.541000,0.541000,0.539900,0.539800,0.539700,0.539500,0.539500,0.539300,0.539200,0.539100,0.539100,0.539900,0.540200,0.540200,0.540200,0.539800,0.539600,0.539500,0.539200,0.539000,0.539000,0.539000,0.538000,0.536700,0.535900,0.535800,1.000000,0.494500,0.494500,1.000000,0.291300,0.291200,0.291100,0.291000,0.291000,0.291000,0.291100,0.291100,0.291000,0.291000,0.291000,0.290900,0.290800,0.289900,0.289800,0.289600,0.289500,0.289300,0.289200,0.289200,0.289500,0.289500,0.289500,0.289500,0.288800,0.288800,0.288800,0.288700,0.288700,0.288700,0.288600,0.288400,0.288400,0.288200,0.288000,0.287300,0.287100,0.287000,0.287000,0.286900,0.286800,0.286700,0.286700,0.286600,0.286400,0.286400,0.286400,0.286400,0.286400,0.286400,0.286400,0.286400,0.286300,0.286200,0.286100,0.286100,0.286100,0.285400,0.285200,0.285200,0.285100,0.285100,0.285000,0.285000,0.284900,0.284900,0.284900,0.284100,0.284100,0.284100,0.284100,0.284200,0.284300,0.284200,0.284200,0.284000,0.283800,0.283700,0.283400,0.283300,0.283200,0.283000,0.282800,0.282700,0.282600,0.282500,0.282400,0.282400,0.282200,0.282200,0.282300,0.282600,0.282700,1.000000,1.000000,1.000000,1.000000,0.359800,0.357500,0.355000,0.353800,0.355100,0.361000,1.000000,0.361300,1.000000,1.000000,1.000000,1.000000,1.000000,1.000000,0.368900,0.368600,0.368600,0.372800,1.000000,1.000000,1.000000,0.478400,0.478300,0.478200,0.477200,0.477200,0.477300,0.477600,0.478700,0.478800,0.478900,1.000000,1.000000,1.000000,1.000000,1.000000,0.477200,0.477100,0.477000,0.477000,0.476900,0.476500,0.476200,0.475900,0.475700,0.475600
