1.000000,1.000000,1.000000,1.000000,1.000000,1.000000,1.000000,1.000000,1.000000,1.000000,1.000000,1.000000,1.000000,1.000000,1.000000,1.000000,1.000000,1.000000,1.000000,1.000000,1.000000,1.000000,1.000000,1.000000,1.000000,1.000000,1.000000,1.000000,1.000000,1.000000,1.000000,1.000000,1.000000,1.000000,1.000000,1.000000,0.550700,0.550700,0.549400,0.549300,0.549200,1.000000,1.000000,0.550400,0.550300,0.547500,0.547500,0.546500,0.546500,0.546500,0.546500,0.546500,0.546600,0.547100,0.547100,0.547100,0.545100,0.545000,1.000000,1.000000,0.544400,0.544100,0.544000,0.544000,0.544000,0.544100,0.546500,0.546500,0.546500,0.545000,0.544600,0.542500,0.541900,0.541900,0.542100,0.542200,0.543400,0.543400,0.543300,0.542800,0.542400,0.542400,0.542400,0.541800,0.541600,0.541600,0.541500,0.541400,0.541000,0.540900,0.540700,0.540700,0.540700,0.540700,0.540800,0.540900,0.540900,0.540000,0.538400,0.538400,0.538500,0.538500,0.538600,0.538800,0.539000,0.539200,0.539000,0.538900,1.000000,0.495600,0.495700,0.494400,1.000000,0.292000,0.292100,0.292200,0.292200,0.292200,0.291600,0.291600,0.291600,0.291600,0.291500,0.291400,0.291300,0.290900,0.290800,0.290600,0.290400,0.290200,0.290100,0.290100,0.290100,0.290000,0.289800,0.289600,0.289600,0.289600,0.289700,0.289700,0.289700,0.289600,0.288900,0.288900,0.288700,0.288700,0.288600,0.288600,0.288400,0.287800,0.287700,0.287500,0.287400,0.287300,0.287200,0.287200,0.287000,0.287000,0.286800,0.286700,0.286600,0.286600,0.286500,0.286300,0.286100,0.285800,0.285600,0.285600,0.285400,0.285400,0.285400,0.285400,0.285400,0.285400,0.285400,0.285300,0.285000,0.285000,0.285000,0.285000,0.285000,0.285000,0.284900,0.284900,0.284900,0.284800,0.284700,0.284600,0.284500,0.284300,0.284200,0.284100,0.284000,0.284000,0.283900,0.283900,0.283700,0.283600,0.283400,0.282900,0.282900,0.282900,0.283000,0.283000,0.282900,1.000000,1.000000,1.000000,1.000000,1.000000,1.000000,1.000000,1.000000,1.000000,1.000000,1.000000,1.000000,0.481700,0.481800,0.481900,0.482000,0.482600,0.482500,0.482200,0.481100,0.481100,0.481000,0.480900,0.480600,0.480400,0.480300,0.480200,0.480100,0.479900,0.479800,0.479700,0.479400,0.479000,0.478200,0.478200,1.000000,1.000000,1.000000,1.000000,1.000000,1.000000,1.000000,0.476500,0.476500,0.476500,0.476400,0.476400,0.476300,0.476300,0.476400,0.476600
1.000000,1.000000,1.000000,1.000000,1.000000,1.000000,1.000000,1.000000,1.000000,1.000000,1.000000,1.000000,1.000000,1.000000,1.000000,1.000000,1.000000,1.000000,1.000000,1.000000,1.000000,1.000000,1.000000,1.000000,1.000000,1.000000,1.000000,1.000000,1.000000,1.000000,1.000000,1.000000,1.000000,1.000000,1.000000,1.000000,1.000000,0.550600,0.550300,0.549400,0.549300,1.000000,0.549100,0.549000,0.547500,0.547400,0.547400,0.546500,0.546500,0.546500,0.546500,0.546600,0.546700,0.547100,0.547200,0.547200,0.546500,0.545100,0.545100,0.544900,0.544600,0.544100,0.544000,0.544000,0.544000,0.544000,0.546500,0.546600,0.546500,0.545200,0.544800,0.541900,0.541900,0.541900,0.542000,0.542000,0.542000,0.543400,0.543300,0.542400,0.542300,0.542300,0.542200,0.541600,0.541600,0.541500,0.541400,0.541400,0.541300,0.541100,0.540700,0.540700,0.540700,0.540700,0.540800,0.540900,0.541000,0.540000,0.538500,0.538500,0.538500,0.538600,0.538700,0.538800,0.539000,0.539100,0.539000,0.539000,1.000000,0.495700,0.494400,0.494400,1.000000,0.292600,0.292200,0.292300,0.292000,0.291500,0.291500,0.291500,0.291500,0.291500,0.291500,0.291400,0.291300,0.290900,0.290800,0.290200,0.290000,0.290000,0.290000,0.290000,0.290000,0.290000,0.289900,0.289600,0.289500,0.289500,0.289500,0.289500,0.289100,0.289000,0.288900,0.288800,0.288700,0.288600,0.288600,0.288500,0.288300,0.287900,0.287700,0.287500,0.287400,0.287200,0.287200,0.287100,0.286900,0.286800,0.286700,0.286700,0.286600,0.286500,0.286500,0.286300,0.286100,0.285700,0.285600,0.285500,0.285400,0.285300,0.285300,0.285300,0.285300,0.285200,0.285000,0.284900,0.284900,0.284700,0.284700,0.284700,0.284700,0.284700,0.284700,0.284700,0.284700,0.284700,0.284600,0.284500,0.284400,0.284200,0.284100,0.284000,0.283900,0.283900,0.283200,0.283000,0.283000,0.283000,0.282700,0.282700,0.282700,0.282800,0.282800,0.282900,0.282700,0.282100,1.000000,1.000000,0.480300,0.480900,0.481000,0.481000,1.000000,1.000000,0.354400,1.000000,1.000000,0.481000,0.481700,0.481700,0.481800,0.481800,0.481800,0.481300,0.481200,0.481200,0.481000,0.481000,0.480300,0.480200,0.480200,0.480100,0.480000,0.479800,0.479700,0.479600,0.479300,0.478400,0.478200,0.478100,1.000000,1.000000,1.000000,1.000000,1.000000,1.000000,1.000000,0.476500,0.476500,0.476400,0.476400,0.476400,0.476400,0.476400,0.476400,0.476600
1.000000,1.000000,1.000000,1.000000,1.000000,1.000000,1.000000,1.000000,1.000000,1.000000,1.000000,1.000000,1.000000,1.000000,1.000000,1.000000,1.000000,1.000000,1.000000,1.000000,1.000000,1.000000,1.000000,1.000000,1.000000,1.000000,1.000000,1.000000,1.000000,1.000000,1.000000,1.000000,1.000000,1.000000,1.000000,1.000000,0.550600,0.550500,0.550500,0.549300,0.549200,0.548200,0.545600,0.545600,1.000000,0.547400,0.547400,0.547400,0.546500,0.546500,0.547400,1.000000,0.547200,0.547200,0.547300,0.547400,0.547400,0.545200,0.545200,0.546100,0.546100,0.546200,0.544000,0.544000,0.544000,0.545600,0.546500,0.546600,0.545900,0.545000,0.544800,0.544600,0.544600,0.541900,0.541900,0.542000,0.542000,0.542100,0.542200,0.542200,0.542100,0.542000,0.541900,0.541500,0.541400,0.541300,0.541300,0.541300,0.541300,0.541400,0.541500,0.540700,0.540700,0.540700,0.540900,0.541000,0.541100,0.540000,0.538700,0.538600,0.538600,0.538700,0.538700,0.538800,0.538800,0.538900,0.538900,0.538900,1.000000,0.494400,0.494400,0.494400,1.000000,0.292600,0.292500,0.292500,0.291500,0.291500,0.291400,0.291400,0.291400,0.291500,0.291500,0.291400,0.291200,0.290700,0.290600,0.290100,0.290000,0.290000,0.290000,0.290000,0.290000,0.290000,0.289900,0.289600,0.289500,0.289400,0.289300,0.289200,0.289000,0.288900,0.288800,0.288800,0.288700,0.288600,0.288600,0.288400,0.288400,0.288100,0.287900,0.287500,0.287400,0.287200,0.287100,0.287000,0.286800,0.286700,0.286600,0.286600,0.286600,0.286500,0.286400,0.286300,0.286000,0.285600,0.285500,0.285400,0.285300,0.285300,0.285300,0.285200,0.285200,0.285000,0.284900,0.284800,0.284700,0.284700,0.284700,0.284600,0.284700,0.284700,0.284700,0.284700,0.284600,0.284600,0.284500,0.284400,0.284400,0.284200,0.284000,0.283900,0.283800,0.283700,0.283000,0.282900,0.282700,0.282600,0.282600,0.282600,0.282700,0.282700,0.282800,0.282800,0.282000,0.282000,1.000000,0.480800,0.480800,0.480900,0.481000,0.481000,0.481000,1.000000,0.354500,0.354500,1.000000,0.480400,0.481200,0.481300,0.481500,0.481600,0.481600,0.481500,0.481300,0.481200,0.481100,0.481000,0.480000,0.480000,0.480000,0.480000,0.480000,0.479800,0.479700,0.479500,0.478100,0.478100,0.478000,0.477900,0.477900,1.000000,1.000000,1.000000,1.000000,1.000000,1.000000,0.476600,0.476500,0.476500,0.476400,0.476400,0.476400,0.476500,0.475200,0.475200
1.000000,1.000000,1.000000,1.000000,1.000000,1.000000,1.000000,1.000000,1.000000,1.000000,1.000000,1.000000,1.000000,1.000000,1.000000,1.000000,1.000000,1.000000,1.000000,1.000000,1.000000,1.000000,1.000000,1.000000,1.000000,1.000000,1.000000,1.000000,1.000000,1.000000,1.000000,1.000000,1.000000,1.000000,1.000000,1.000000,0.550500,0.550500,0.550500,0.550400,0.550000,0.548500,0.545600,0.545600,1.000000,0.547000,0.547400,0.547400,0.547600,0.547500,0.547400,1.000000,1.000000,0.547300,0.547400,0.547400,0.547400,0.545300,0.545300,0.545400,0.546200,0.546200,0.544000,0.544000,0.544000,0.544000,0.546500,0.546400,0.545500,0.544800,0.544800,0.544600,0.544500,0.543100,0.543100,0.541900,0.541900,0.542000,0.542100,0.542100,0.542000,0.541900,0.541800,0.541400,0.541400,0.541300,0.541000,0.540600,0.540500,0.541600,0.541900,0.542000,0.540900,0.540900,0.541000,0.541100,0.540200,0.539200,0.539200,0.539000,0.539000,0.538800,0.538800,0.538800,0.538800,0.538800,0.538700,0.538600,1.000000,0.496300,0.496300,0.494500,1.000000,0.292600,0.292200,0.291500,0.291400,0.291400,0.291400,0.291300,0.291400,0.291400,0.291400,0.290800,0.290500,0.290400,0.290300,0.290100,0.290000,0.290000,0.290000,0.290000,0.290000,0.289900,0.289800,0.289500,0.289400,0.289200,0.289000,0.289000,0.288900,0.288800,0.288800,0.288800,0.288700,0.288600,0.288600,0.288400,0.288400,0.288200,0.288100,0.287900,0.287700,0.287300,0.287100,0.287000,0.286800,0.286700,0.286600,0.286600,0.286600,0.286600,0.286500,0.286400,0.286200,0.285600,0.285500,0.285400,0.285400,0.285400,0.285300,0.285200,0.285200,0.285000,0.284900,0.284800,0.284800,0.284700,0.284600,0.284600,0.284600,0.284600,0.284600,0.284500,0.284400,0.284400,0.284300,0.284200,0.284200,0.284000,0.283900,0.283700,0.283600,0.283400,0.283000,0.282800,0.282700,0.282600,0.282600,0.282500,0.282600,0.282600,0.282700,0.282800,0.282000,0.282000,1.000000,0.479600,0.480900,0.480900,0.481000,0.481000,1.000000,1.000000,0.354500,0.354500,1.000000,0.480100,1.000000,0.481300,0.481400,0.481500,0.481600,0.481500,0.481400,0.481400,0.481200,0.481100,0.479800,0.479800,0.479800,0.479900,0.479900,0.479900,0.479900,0.479700,0.478000,0.478000,0.477900,0.477800,0.477800,1.000000,1.000000,1.000000,1.000000,1.000000,1.000000,0.476800,0.476600,0.476500,0.476400,0.476000,0.475400,0.475400,0.475200,0.475200
1.000000,1.000000,1.000000,1.000000,1.000000,1.000000,1.000000,1.000000,1.000000,1.000000,1.000000,1.000000,1.000000,1.000000,1.000000,1.000000,1.000000,1.000000,1.000000,1.000000,1.000000,1.000000,1.000000,1.000000,1.000000,1.000000,1.000000,1.000000,1.000000,1.000000,1.000000,1.000000,1.000000,1.000000,1.000000,1.000000,0.550500,0.550500,0.550500,0.550500,0.550600,0.550600,0.550600,1.000000,1.000000,0.546700,0.547600,0.547600,0.547600,0.547600,0.547400,0.547300,0.547200,0.547200,0.547400,0.547500,0.547500,0.545300,0.545400,0.545400,0.546200,0.546200,0.544000,0.544000,0.544000,0.544100,0.544200,1.000000,1.000000,1.000000,0.543000,0.543000,0.543000,0.542100,0.542100,0.542000,0.541800,0.541800,0.541800,0.541900,0.541800,0.541800,0.541700,0.541400,0.541400,0.540500,0.539200,0.539200,0.539200,0.541500,0.542000,0.542000,0.542000,0.541000,0.541100,0.540700,0.539300,0.539300,0.539300,0.539200,0.539100,0.538900,0.538800,0.538600,0.538500,0.538500,0.538400,0.538400,1.000000,0.496400,0.496400,0.496300,1.000000,0.292400,0.291300,0.291300,0.291300,0.291300,0.291300,0.291300,0.291300,0.291300,0.290400,0.290400,0.290400,0.290300,0.290300,0.290100,0.290100,0.290100,0.290000,0.290000,0.290000,0.289900,0.289800,0.289500,0.289300,0.289100,0.289000,0.288900,0.288800,0.288800,0.288700,0.288700,0.288600,0.288600,0.288500,0.288400,0.288300,0.288200,0.288100,0.287900,0.287700,0.287400,0.287200,0.287000,0.286800,0.286700,0.286600,0.286600,0.286600,0.286600,0.286600,0.286400,0.286300,0.285700,0.285600,0.285500,0.285400,0.285400,0.285400,0.285300,0.285200,0.285000,0.284900,0.284900,0.284900,0.284800,0.284700,0.284600,0.284600,0.284600,0.284500,0.284500,0.284400,0.284300,0.284200,0.284100,0.284000,0.283900,0.283800,0.283600,0.283500,0.283400,0.283100,0.283000,0.282700,0.282600,0.282600,0.282500,0.282600,0.282600,0.282700,0.282800,0.282800,1.000000,1.000000,0.479700,0.480900,0.480900,0.481000,1.000000,1.000000,1.000000,1.000000,0.354600,1.000000,0.480200,1.000000,1.000000,0.481400,0.481500,0.481500,1.000000,0.481400,0.481400,0.481300,0.479600,0.479600,0.479800,0.479700,0.479800,0.479800,0.479900,0.479900,0.479900,0.477800,0.477800,0.477800,0.477800,0.477800,1.000000,1.000000,1.000000,1.000000,1.000000,1.000000,0.477300,0.476900,0.476600,0.475900,0.475500,0.475500,0.475400,0.475300,0.475200
1.000000,1.000000,1.000000,1.000000,1.000000,1.000000,1.000000,1.000000,1.000000,1.000000,1.000000,1.000000,1.000000,1.000000,1.000000,1.000000,1.000000,1.000000,1.000000,1.000000,1.000000,1.000000,1.000000,1.000000,1.000000,1.000000,1.000000,1.000000,1.000000,1.000000,1.000000,1.000000,1.000000,1.000000,1.000000,1.000000,0.551400,0.551400,0.551300,0.550700,0.550700,0.549300,0.548400,0.546700,0.546700,0.546700,0.546800,0.547700,0.547700,0.547600,0.547300,0.547200,0.545900,0.546000,0.546000,0.547300,0.547300,0.545400,0.545400,0.545400,0.545600,0.546000,0.544000,0.544000,0.544000,0.544100,0.544200,0.544200,0.543200,1.000000,1.000000,0.542900,0.541800,0.541900,0.542100,0.542100,0.541800,0.541700,0.541700,0.541800,0.541800,0.541700,0.541600,0.541500,0.541400,0.540400,0.539200,0.539200,0.539200,0.541200,0.542000,0.542000,0.541900,0.541200,0.541100,0.539300,0.539300,0.539300,0.539300,0.539300,0.540500,0.538900,0.538600,0.538300,0.538100,0.538100,0.538100,0.538100,1.000000,0.496400,0.496300,0.494800,1.000000,0.291300,0.291200,0.291200,0.291200,0.291200,0.291200,0.291200,0.291200,0.290400,0.290300,0.290300,0.290200,0.290200,0.290200,0.290200,0.290200,0.290100,0.290100,0.290000,0.289900,0.289800,0.289700,0.289500,0.289300,0.289000,0.288900,0.288900,0.288700,0.288700,0.288700,0.288600,0.288600,0.288500,0.288400,0.288300,0.288300,0.288200,0.288100,0.288000,0.287700,0.287400,0.287300,0.287100,0.286900,0.286800,0.286700,0.286700,0.286800,0.286700,0.286700,0.286500,0.286300,0.285900,0.285800,0.285700,0.285600,0.285600,0.285700,0.285700,0.285800,0.285800,0.285800,0.285500,0.285100,0.284900,0.284700,0.284600,0.284600,0.284600,0.284500,0.284400,0.284300,0.284200,0.284000,0.283900,0.283900,0.283800,0.283700,0.283600,0.283500,0.283400,0.283300,0.283100,0.282800,0.282700,0.282600,0.282500,0.282500,0.282600,0.282700,0.282800,0.282800,0.282800,1.000000,1.000000,1.000000,1.000000,1.000000,1.000000,0.356300,0.354600,0.354600,0.354600,1.000000,1.000000,1.000000,1.000000,1.000000,1.000000,1.000000,1.000000,1.000000,1.000000,1.000000,1.000000,1.000000,1.000000,0.479600,0.479700,0.479800,0.479800,0.479900,0.479900,0.477700,0.477800,0.477800,0.477800,0.477800,0.477800,1.000000,1.000000,1.000000,1.000000,1.000000,0.477400,0.477100,0.476800,0.475600,0.475500,0.475500,0.475500,0.475400,0.475200
1.000000,1.000000,1.000000,1.000000,1.000000,1.000000,1.000000,1.000000,1.000000,1.000000,1.000000,1.000000,1.000000,1.000000,1.000000,1.000000,1.000000,1.000000,1.000000,1.000000,1.000000,1.000000,1.000000,1.000000,1.000000,1.000000,1.000000,1.000000,1.000000,1.000000,1.000000,1.000000,1.000000,1.000000,1.000000,1.000000,0.551400,0.551400,0.551300,0.550800,0.549700,0.548400,0.548300,0.547000,0.546700,0.546800,0.546800,0.547800,0.547700,0.547600,0.547300,0.547200,0.545900,0.545900,0.545900,0.546000,0.547200,0.545400,0.545400,0.545400,0.545400,0.546000,0.544000,0.544000,0.544100,0.544100,0.544200,0.544200,0.543200,0.543100,0.543000,0.542800,0.541800,0.541800,0.542000,0.542100,0.542100,0.541700,0.541700,0.541700,0.541700,0.541700,0.541600,0.541500,0.541400,0.540400,0.539200,0.539200,0.539200,0.540900,0.541500,0.541900,0.541700,0.541100,0.541000,0.539300,0.539300,0.539300,0.539400,0.539500,0.540400,0.539600,0.538200,0.538200,0.538000,0.538000,0.538000,0.537900,1.000000,0.496200,0.494800,0.494700,1.000000,0.291300,0.291200,0.291200,0.291200,0.291200,0.291200,0.291100,0.291000,0.290400,0.290300,0.290300,0.290200,0.290200,0.290200,0.290200,0.290200,0.290200,0.290100,0.290000,0.289900,0.289800,0.289700,0.289500,0.289400,0.289000,0.289000,0.288900,0.288700,0.288700,0.288600,0.288600,0.288500,0.288500,0.288400,0.288300,0.288200,0.288100,0.288000,0.287900,0.287500,0.287300,0.287200,0.287100,0.287000,0.286900,0.286800,0.286800,0.286800,0.286800,0.286800,0.286600,0.286300,0.285900,0.285800,0.285800,0.285700,0.285700,0.285800,0.285800,0.285800,0.285800,0.285700,0.285500,0.285200,0.285000,0.284800,0.284700,0.284600,0.284600,0.284500,0.284400,0.284200,0.284100,0.283900,0.283800,0.283800,0.283700,0.283600,0.283600,0.283500,0.283500,0.283300,0.283200,0.282800,0.282600,0.282500,0.282500,0.282500,0.282600,0.282700,0.282800,0.282800,0.282800,1.000000,1.000000,1.000000,1.000000,1.000000,0.358700,0.356100,0.355900,0.354700,0.355800,1.000000,1.000000,1.000000,1.000000,0.363500,0.363700,0.366500,1.000000,1.000000,1.000000,1.000000,1.000000,1.000000,1.000000,1.000000,0.479700,1.000000,0.479800,0.479800,0.479800,0.478400,0.477800,0.477800,0.477800,0.477800,1.000000,1.000000,1.000000,1.000000,1.000000,1.000000,0.477400,0.477300,0.477000,0.475600,0.475500,0.475500,0.475500,0.475700,0.475500
0.761300,0.761300,1.000000,1.000000,1.000000,1.000000,1.000000,1.000000,1.000000,1.000000,1.000000,1.000000,1.000000,1.000000,1.000000,1.000000,1.000000,1.000000,1.000000,1.000000,1.000000,1.000000,1.000000,1.000000,1.000000,1.000000,1.000000,1.000000,1.000000,1.000000,1.000000,1.000000,1.000000,1.000000,1.000000,1.000000,0.551400,0.551400,0.549900,0.549800,0.548400,0.548300,0.548200,0.548100,0.546800,0.546800,0.546800,0.547800,0.547800,0.547700,0.547400,0.547300,0.547000,0.545900,0.545800,0.545800,0.547200,0.547100,0.545500,0.545300,0.545100,0.545000,0.544200,0.544200,0.544100,0.544100,0.544200,1.000000,1.000000,0.544200,0.544100,0.542800,0.541800,0.541800,0.542000,0.542100,0.542200,0.541900,0.541600,0.541600,0.541600,0.541600,0.541600,0.541500,0.540600,0.540300,0.539200,0.539200,0.539200,0.540300,0.541000,0.541100,0.541100,0.540900,0.540800,0.540800,0.539400,0.539400,0.539400,0.539500,0.539900,0.539700,0.539600,0.538000,0.537900,0.537900,0.537800,0.537800,1.000000,1.000000,0.494800,0.494700,1.000000,0.291300,0.291300,0.291300,0.291200,0.291200,0.291100,0.291000,0.290900,0.290400,0.290300,0.290200,0.290200,0.290200,0.290200,0.290300,0.290400,0.290300,0.290100,0.290000,0.289900,0.289900,0.289800,0.289600,0.289500,0.289200,0.289000,0.288900,0.288700,0.288700,0.288600,0.288600,0.288400,0.288400,0.288300,0.288100,0.288000,0.287800,0.287600,0.286600,0.286600,0.286700,0.287000,0.287000,0.287000,0.286900,0.286900,0.286900,0.286900,0.286800,0.286800,0.286700,0.286000,0.285900,0.285800,0.285800,0.285800,0.285800,0.285800,0.285900,0.285900,0.285800,0.285700,0.285400,0.285300,0.285100,0.284800,0.284800,0.284700,0.284600,0.284500,0.284400,0.284200,0.284000,0.283900,0.283800,0.283800,0.283600,0.283600,0.283500,0.283500,0.283500,0.283400,0.283300,0.282600,0.282500,0.282500,0.282400,0.282500,0.282600,0.282800,0.282800,0.282700,0.282700,1.000000,1.000000,1.000000,0.359100,0.358900,1.000000,0.356000,0.355900,0.355900,0.355800,0.360800,1.000000,0.363700,0.363600,0.363500,0.363500,0.365200,0.368500,0.370200,0.371300,0.371400,0.371500,1.000000,1.000000,1.000000,0.479600,0.479600,0.479600,0.479600,0.479700,0.478400,0.478400,0.477900,0.477800,0.477700,0.477700,1.000000,1.000000,1.000000,1.000000,1.000000,0.477600,0.477500,0.477300,0.476000,0.476000,0.476000,0.475900,0.475900,0.475100
1.000000,1.000000,1.000000,1.000000,1.000000,1.000000,1.000000,1.000000,1.000000,1.000000,1.000000,1.000000,1.000000,1.000000,1.000000,1.000000,1.000000,1.000000,1.000000,1.000000,1.000000,1.000000,1.000000,1.000000,1.000000,1.000000,1.000000,1.000000,1.000000,1.000000,1.000000,1.000000,1.000000,1.000000,1.000000,1.000000,1.000000,0.549900,1.000000,0.547800,0.547600,0.547200,0.547200,0.548000,0.548000,0.546800,0.546800,0.547000,0.547700,0.547700,0.547500,0.547400,0.546300,0.545900,0.545700,0.545600,0.545500,0.545600,0.545000,0.545000,0.544900,0.544800,0.544500,0.544200,0.544200,0.544200,0.544200,0.544200,0.544200,0.544200,0.544100,0.543900,0.543800,0.542100,0.542100,0.543300,0.543000,0.542800,0.541600,0.541600,0.541500,0.541500,0.541300,0.540400,0.540300,0.540300,0.540300,0.540300,0.540200,0.540900,0.541000,0.541000,0.541000,0.540800,0.540800,0.540700,0.539500,0.539400,0.539400,0.539500,0.539600,0.539100,0.539000,0.537900,0.537800,0.537800,0.537500,0.537500,1.000000,0.496500,0.495000,0.494800,1.000000,0.291300,0.291300,0.291300,0.291200,0.291000,0.291000,0.290800,0.290600,0.290400,0.290300,0.290200,0.290200,0.290200,0.290300,0.290400,0.290400,0.290300,0.290000,0.290000,0.289900,0.289900,0.289900,0.289700,0.289600,0.289400,0.289100,0.289000,0.288800,0.288700,0.288600,0.288500,0.288400,0.288300,0.288200,0.288000,0.287900,0.287700,0.287600,0.286600,0.286600,0.286600,0.286700,0.286900,0.286900,0.286900,0.286900,0.286900,0.286900,0.286900,0.286800,0.286000,0.285900,0.285800,0.285800,0.285800,0.285800,0.285800,0.285800,0.285800,0.285800,0.285700,0.285600,0.285400,0.285200,0.285000,0.284800,0.284700,0.284600,0.284600,0.284500,0.284400,0.284100,0.284000,0.283800,0.283800,0.283700,0.283500,0.283500,0.283400,0.283400,0.283400,0.283400,0.283100,0.282600,0.282500,0.282400,0.282400,0.282600,0.282600,0.282800,0.282800,0.282700,0.282600,1.000000,0.359300,0.359200,0.359100,0.358900,0.358800,0.356300,0.355800,0.355800,0.355800,0.359300,0.362400,0.363700,0.363600,0.363500,0.363500,0.365200,0.366500,0.366500,0.368700,0.371400,0.371400,0.374000,0.376000,1.000000,1.000000,1.000000,0.479500,0.479600,0.479600,0.479200,0.478500,0.477600,0.477600,0.477500,1.000000,1.000000,1.000000,1.000000,1.000000,1.000000,0.478200,0.477800,0.477600,0.476100,0.476100,0.476000,0.476000,0.475900,0.474400
1.000000,1.000000,1.000000,1.000000,1.000000,1.000000,1.000000,1.000000,1.000000,1.000000,1.000000,1.000000,1.000000,1.000000,1.000000,1.000000,1.000000,1.000000,1.000000,1.000000,1.000000,1.000000,1.000000,1.000000,1.000000,1.000000,1.000000,1.000000,1.000000,1.000000,1.000000,1.000000,1.000000,1.000000,1.000000,1.000000,1.000000,1.000000,1.000000,0.547700,1.000000,0.547200,0.547200,0.547600,0.548000,0.547700,0.547600,0.547600,0.547700,1.000000,0.547600,0.547500,0.546200,0.545900,0.545600,0.545400,0.545400,0.544900,0.544900,0.544900,0.544800,0.544800,0.544600,0.544400,0.544200,0.544200,0.544000,0.543400,0.543600,0.543400,0.543700,0.544000,0.543800,0.543600,0.543500,0.543400,0.543100,0.542900,0.542800,0.541500,0.541200,0.541100,0.540200,0.540200,0.540200,0.540200,0.540200,0.540200,0.540200,0.540900,0.540900,0.541000,0.540900,0.540800,0.540200,0.539500,0.539400,0.539400,0.539400,0.539400,0.539400,0.539000,0.539000,0.538900,0.537700,0.537300,0.537000,0.537000,1.000000,0.496600,0.496600,0.496500,1.000000,0.291400,0.291300,0.291300,0.291100,0.291000,0.290900,0.290700,0.290600,0.290400,0.290300,0.290200,0.290200,0.290300,0.290300,0.290400,0.290400,0.290100,0.289900,0.289900,0.289900,0.289900,0.289900,0.289800,0.289700,0.289400,0.289000,0.288900,0.288800,0.288700,0.288600,0.288500,0.288300,0.288100,0.288000,0.287800,0.287700,0.287600,0.287600,0.286500,0.286500,0.286600,0.286600,0.286700,0.286900,0.286900,0.286900,0.286900,0.286900,0.286800,0.286700,0.285900,0.285800,0.285700,0.285700,0.285600,0.285600,0.285700,0.285700,0.285700,0.285800,0.285700,0.285600,0.285300,0.285200,0.285000,0.284800,0.284700,0.284600,0.284500,0.284500,0.284300,0.284100,0.284000,0.283800,0.283800,0.283700,0.283500,0.283400,0.283400,0.283400,0.283400,0.283300,0.283200,0.282700,0.282600,0.282500,0.282500,0.282600,0.282600,0.282600,0.282600,0.282400,0.282500,1.000000,0.360600,0.361200,0.361300,0.361500,0.360200,0.357400,0.355700,0.355700,0.355700,0.359300,0.362400,0.363800,1.000000,1.000000,1.000000,1.000000,1.000000,0.366500,0.366500,0.371300,0.371400,1.000000,1.000000,1.000000,1.000000,0.479400,0.479400,0.479400,0.479300,0.479000,0.477600,0.477500,0.477500,1.000000,1.000000,1.000000,1.000000,1.000000,1.000000,1.000000,0.479200,0.478300,0.478200,0.477900,0.476900,0.476100,0.475900,0.475800,0.474300
1.000000,1.000000,1.000000,1.000000,1.000000,1.000000,1.000000,1.000000,1.000000,1.000000,1.000000,1.000000,1.000000,1.000000,1.000000,1.000000,1.000000,1.000000,1.000000,1.000000,1.000000,1.000000,1.000000,1.000000,1.000000,1.000000,1.000000,1.000000,1.000000,1.000000,1.000000,1.000000,1.000000,1.000000,1.000000,1.000000,1.000000,1.000000,0.548400,0.547400,1.000000,0.547200,0.547200,0.547400,0.548000,0.548000,0.547600,0.547600,0.547600,0.547600,0.547600,0.547400,0.546100,0.545400,0.545400,0.545300,0.544800,0.543400,0.544800,0.544800,0.544700,0.544700,0.542200,0.542100,0.542100,0.542000,0.541900,0.541900,0.541800,0.541800,0.541800,0.541900,0.542000,0.543600,0.543500,0.543400,0.543300,0.543200,0.542700,0.541100,0.541000,0.541000,0.540200,0.540200,0.540200,0.540200,0.540200,0.540200,0.540200,0.540900,0.540900,0.541000,0.541000,0.540700,0.539700,0.539400,0.539400,0.539400,0.539400,0.539400,0.539200,0.539000,0.538900,0.538800,0.537600,0.537100,0.536900,0.536800,1.000000,0.496600,0.496600,0.496500,1.000000,1.000000,0.291300,0.291200,0.290900,0.290800,0.290800,0.290700,0.290600,0.290400,0.290300,0.290200,0.290200,0.290200,0.290300,0.290300,0.289600,0.289600,0.289600,0.289800,0.289800,0.289800,0.289800,0.289800,0.289700,0.288900,0.288800,0.288800,0.288700,0.288700,0.288600,0.288500,0.288100,0.287900,0.287900,0.287800,0.287700,0.287600,0.287600,0.286600,0.286600,0.286600,0.286600,0.286700,0.286800,0.286900,0.286900,0.286900,0.286900,0.286800,0.286000,0.285700,0.285700,0.285600,0.285600,0.285600,0.285500,0.285500,0.285600,0.285600,0.285700,0.285600,0.285600,0.285300,0.285200,0.285000,0.284800,0.284700,0.284500,0.284400,0.284300,0.284200,0.284000,0.284000,0.283800,0.283700,0.283600,0.283400,0.283400,0.283400,0.283400,0.283400,0.283300,0.283200,0.282800,0.282700,0.282600,0.282500,0.282600,0.282600,0.282500,0.282400,0.282300,0.282300,1.000000,0.361600,0.361700,0.361600,0.361500,0.361500,0.357400,0.355600,0.355600,0.355600,0.359300,0.362400,1.000000,1.000000,1.000000,1.000000,1.000000,1.000000,0.366500,0.366500,1.000000,1.000000,1.000000,1.000000,1.000000,1.000000,1.000000,0.479300,0.479200,0.479100,0.477600,0.477500,0.477500,0.477400,0.477400,1.000000,1.000000,1.000000,1.000000,1.000000,1.000000,0.478500,0.478200,0.478100,0.477900,0.477700,0.476300,0.475700,0.475600,0.474100
1.000000,1.000000,1.000000,1.000000,1.000000,1.000000,1.000000,1.000000,1.000000,1.000000,1.000000,1.000000,1.000000,1.000000,1.000000,1.000000,1.000000,1.000000,1.000000,1.000000,1.000000,1.000000,1.000000,1.000000,1.000000,1.000000,1.000000,1.000000,1.000000,1.000000,1.000000,1.000000,1.000000,1.000000,1.000000,1.000000,1.000000,0.548500,0.548500,0.547400,1.000000,0.547300,0.547400,0.547700,0.548100,0.548200,0.547800,0.547600,0.547600,0.547600,0.547500,0.547400,0.545300,0.545300,0.545300,0.543900,0.543400,0.543400,0.543400,0.544700,0.544600,0.544600,0.542200,0.542100,0.542100,0.542000,0.542000,0.541800,0.541800,0.541700,0.541700,0.541800,0.541900,0.542200,0.543500,0.543400,0.543300,0.543200,0.541000,0.541000,0.541000,0.541000,0.540900,0.540200,0.540200,0.540200,0.540100,0.540200,0.540200,0.540800,0.540900,0.541000,0.541000,0.540800,0.539400,0.539300,0.539300,0.538900,0.538800,0.537700,0.537700,0.537700,0.538800,0.538800,0.538700,0.537600,0.536800,0.536800,1.000000,0.496500,0.496500,0.496500,1.000000,1.000000,0.291300,0.291100,0.290800,0.290800,0.290800,0.290700,0.290600,0.290400,0.290300,0.290300,0.290200,0.290200,0.290200,0.289400,0.289300,0.289300,0.289500,0.289700,0.289700,0.289800,0.289800,0.289700,0.289600,0.288800,0.288800,0.288700,0.288700,0.288600,0.288500,0.288500,0.287800,0.287800,0.287800,0.287700,0.287700,0.287600,0.287500,0.286700,0.286600,0.286600,0.286700,0.286700,0.286800,0.286900,0.287000,0.286900,0.286800,0.286400,0.285900,0.285400,0.285400,0.285400,0.285400,0.285400,0.285500,0.285500,0.285500,0.285500,0.285600,0.285600,0.285600,0.285300,0.285200,0.285000,0.284800,0.284700,0.284400,0.284400,0.284300,0.284100,0.284000,0.283900,0.283700,0.283600,0.283400,0.283400,0.283400,0.283400,0.283400,0.283400,0.283300,0.283200,0.283000,0.282800,0.282700,0.282600,0.282500,0.282500,0.282400,0.282400,0.282200,0.282200,1.000000,1.000000,1.000000,1.000000,1.000000,0.361500,0.355500,0.355500,0.355500,0.355600,1.000000,1.000000,1.000000,1.000000,1.000000,1.000000,1.000000,1.000000,1.000000,1.000000,1.000000,1.000000,1.000000,1.000000,1.000000,1.000000,1.000000,0.479300,0.477800,0.477600,0.477600,0.477500,0.477500,0.477400,0.477400,1.000000,1.000000,1.000000,1.000000,1.000000,1.000000,0.478300,0.478100,0.478000,0.477800,0.477600,0.476300,0.475500,0.475500,0.474100
1.000000,1.000000,1.000000,1.000000,1.000000,1.000000,1.000000,1.000000,1.000000,1.000000,1.000000,1.000000,1.000000,1.000000,1.000000,1.000000,1.000000,1.000000,1.000000,1.000000,1.000000,1.000000,1.000000,1.000000,1.000000,1.000000,1.000000,1.000000,1.000000,1.000000,1.000000,1.000000,1.000000,1.000000,1.000000,1.000000,1.000000,1.000000,0.548500,0.547400,0.547400,0.547500,0.547600,0.547800,0.549400,0.549200,0.548600,0.547600,0.547600,1.000000,0.545400,0.545300,0.545300,0.545300,0.545300,0.543600,0.543500,0.543500,0.543500,0.544600,0.544500,0.544500,0.542200,0.542100,0.542100,0.542000,0.542000,0.541800,0.541700,0.541600,0.541500,0.541500,0.541500,0.541700,0.542500,0.543400,0.542800,0.540900,0.540800,0.540800,0.540800,0.540800,0.540900,0.540500,0.540200,0.540100,0.540100,0.540200,0.540200,0.540400,0.540900,0.541000,0.541000,0.540800,0.539300,0.537600,0.537600,0.537700,0.537700,0.537700,0.537600,0.537600,0.537600,0.538700,0.538700,0.538600,0.536700,0.536700,1.000000,0.496400,0.496400,0.496400,1.000000,0.291500,0.291400,0.291100,0.290800,0.290700,0.290700,0.290800,0.290700,0.290600,0.290500,0.290400,0.290200,0.290200,0.289900,0.289200,0.289200,0.289200,0.289400,0.289500,0.289600,0.289600,0.289600,0.288900,0.288800,0.288700,0.288700,0.288600,0.288600,0.288600,0.288500,0.288400,0.287600,0.287600,0.287600,0.287600,0.287600,0.287500,0.287400,0.286800,0.286700,0.286700,0.286700,0.286800,0.286900,0.286900,0.287000,0.287000,0.286800,0.286400,0.285400,0.285200,0.285200,0.285200,0.285300,0.285400,0.285500,0.285500,0.285500,0.285500,0.285500,0.285600,0.285600,0.285300,0.285100,0.285000,0.284800,0.284700,0.284400,0.284400,0.284200,0.284000,0.284000,0.283800,0.283800,0.283400,0.283300,0.283300,0.283300,0.283400,0.283400,0.283400,0.283300,0.283200,0.283000,0.282900,0.282800,0.282600,0.282500,0.282300,0.282300,0.282200,0.282100,0.282100,1.000000,1.000000,0.480000,0.479900,0.479900,1.000000,1.000000,0.355400,0.355400,1.000000,1.000000,0.481000,0.481000,0.481000,0.481000,0.481000,0.482300,0.481300,0.480100,0.480100,1.000000,1.000000,1.000000,1.000000,0.481100,0.480300,0.479300,0.479200,0.477600,0.477600,0.477600,0.477600,0.477500,0.477500,0.477500,1.000000,1.000000,1.000000,1.000000,1.000000,1.000000,0.477600,0.477600,0.477800,0.477600,0.477400,0.476500,0.475500,0.475400,0.473900
1.000000,1.000000,1.000000,1.000000,1.000000,1.000000,1.000000,1.000000,1.000000,1.000000,1.000000,1.000000,1.000000,1.000000,1.000000,1.000000,1.000000,1.000000,1.000000,1.000000,1.000000,1.000000,1.000000,1.000000,1.000000,1.000000,1.000000,1.000000,1.000000,1.000000,1.000000,1.000000,1.000000,1.000000,1.000000,1.000000,0.548400,0.548400,0.548400,0.547500,0.547500,0.547600,0.547600,0.547700,0.549400,0.549400,0.548600,0.547600,0.545400,0.545400,0.545400,0.545300,0.545300,0.545300,0.545400,0.543600,0.543600,0.543500,0.543600,0.543600,0.544000,0.544400,0.544400,0.544400,0.544300,0.544300,0.544200,0.544100,0.542900,0.541400,0.541400,0.541400,0.541400,0.541500,0.542400,0.542600,0.540900,0.540800,0.540800,0.540700,0.540800,0.540800,0.540800,0.540900,0.541000,0.541100,0.540100,0.540200,0.540200,0.540200,0.540200,0.541000,0.541100,0.539200,0.537800,0.537700,0.537700,0.537700,0.537600,0.537600,0.537500,0.537500,0.537500,0.537300,0.538400,0.538500,0.536600,0.536600,1.000000,0.496100,0.496100,0.496100,1.000000,0.291500,0.291400,0.291100,0.290600,0.290600,0.290700,0.290800,0.290800,0.290700,0.290600,0.290400,0.290200,0.290100,0.289200,0.289100,0.289200,0.289200,0.289400,0.289500,0.289600,0.289600,0.289500,0.288900,0.288800,0.288700,0.288700,0.288700,0.288600,0.288600,0.288600,0.288500,0.287600,0.287600,0.287600,0.287600,0.287600,0.287500,0.287400,0.287100,0.286900,0.286900,0.286900,0.286900,0.286900,0.287000,0.287000,0.287000,0.286900,0.286700,0.286600,0.285200,0.285200,0.285200,0.285200,0.285500,0.285600,0.285500,0.285400,0.285400,0.285400,0.285400,0.285400,0.285100,0.285000,0.284900,0.284800,0.284700,0.284500,0.284400,0.284200,0.283900,0.283800,0.283400,0.283200,0.283100,0.283100,0.283100,0.283200,0.283200,0.283300,0.283300,0.283200,0.283100,0.283000,0.282900,0.282800,0.282600,0.282400,0.282300,0.282200,0.282100,0.282100,0.282100,1.000000,1.000000,0.479900,0.479900,0.479900,1.000000,1.000000,1.000000,1.000000,1.000000,0.481000,0.481000,0.481000,0.481000,0.481000,0.481000,0.482300,0.481200,0.480100,0.480100,1.000000,1.000000,1.000000,0.479700,0.479700,0.479700,0.479100,0.477700,0.477700,0.477600,0.477600,0.477600,0.477600,0.477500,0.477500,1.000000,1.000000,1.000000,1.000000,1.000000,0.475600,0.475700,0.475800,0.477300,0.477200,0.477100,0.477000,0.475500,0.475200,0.473500
1.000000,1.000000,1.000000,1.000000,1.000000,1.000000,1.000000,1.000000,1.000000,1.000000,1.000000,1.000000,1.000000,1.000000,1.000000,1.000000,1.000000,1.000000,1.000000,1.000000,1.000000,1.000000,1.000000,1.000000,1.000000,1.000000,1.000000,1.000000,1.000000,1.000000,1.000000,1.000000,1.000000,1.000000,1.000000,1.000000,1.000000,0.548400,0.548400,1.000000,1.000000,0.547700,0.547700,0.547600,0.547600,0.548000,0.547600,1.000000,0.545500,1.000000,0.545500,0.546000,0.546200,0.545400,0.545400,0.543700,0.543600,0.543600,0.543600,0.543600,0.543600,0.544400,0.544400,0.544400,0.544200,0.544200,0.544200,0.544100,0.542900,0.539600,0.539600,0.539600,0.541300,0.541400,0.541300,0.541200,0.540900,0.540800,0.539200,0.539200,0.539200,0.540100,0.540800,0.540800,0.541000,0.541000,0.541000,0.540100,0.540100,0.540100,0.540000,0.539900,0.539800,0.537900,0.537800,0.537700,0.537700,0.537700,0.537600,0.537600,0.537400,0.537400,0.537300,0.537000,0.537000,0.538500,0.538400,0.537600,1.000000,0.496000,0.496000,0.496000,1.000000,0.291500,0.291400,0.290600,0.290400,0.290500,0.290600,0.290800,0.291000,0.290900,0.290600,0.290500,0.290200,0.290100,0.289800,0.289300,0.289200,0.289200,0.289500,0.289500,0.289600,0.289600,0.289500,0.289000,0.288900,0.288800,0.288700,0.288700,0.288600,0.288600,0.288600,0.287500,0.287500,0.287500,0.287500,0.287500,0.287500,0.287400,0.287300,0.287200,0.287000,0.286900,0.286900,0.287000,0.287000,0.287000,0.287000,0.287000,0.286900,0.286800,0.286500,0.286300,0.286200,0.286000,0.285900,0.285800,0.285600,0.285600,0.285400,0.285400,0.285400,0.285400,0.285400,0.285000,0.284900,0.284900,0.284800,0.284700,0.284600,0.284600,0.284500,0.283700,0.283600,0.283300,0.283200,0.283100,0.283000,0.283000,0.283000,0.283100,0.283200,0.283200,0.283200,0.283100,0.283000,0.282800,0.282700,0.282300,0.282200,0.282100,0.282000,0.282000,0.282000,0.282000,1.000000,0.477600,0.478600,0.479800,0.479800,1.000000,1.000000,0.352900,1.000000,0.481000,0.480900,0.480700,0.480900,0.480900,0.480900,0.480900,0.480900,0.480400,0.480100,0.480000,0.479800,1.000000,1.000000,1.000000,0.479200,0.479300,0.479000,0.477700,0.477700,0.477600,0.477600,0.477600,0.477600,0.477600,1.000000,1.000000,1.000000,1.000000,1.000000,1.000000,1.000000,1.000000,0.475600,0.476300,0.477000,0.477000,0.477000,0.475800,0.475000,0.473300
1.000000,1.000000,1.000000,1.000000,1.000000,1.000000,1.000000,1.000000,1.000000,1.000000,1.000000,1.000000,1.000000,1.000000,1.000000,1.000000,1.000000,1.000000,1.000000,1.000000,1.000000,1.000000,1.000000,1.000000,1.000000,1.000000,1.000000,1.000000,1.000000,1.000000,1.000000,1.000000,1.000000,1.000000,1.000000,1.000000,0.546400,1.000000,0.546500,1.000000,1.000000,1.000000,0.546000,0.546200,0.546400,0.547600,1.000000,0.545600,0.545600,0.545600,0.545600,0.546100,0.546200,0.546200,0.545500,0.543900,0.543700,0.543600,0.543600,0.543500,0.543400,0.543300,0.543100,0.543100,0.544200,0.544200,0.544100,0.543000,0.541400,0.539600,0.539600,0.539600,0.541300,0.541400,0.541300,0.541200,0.541000,1.000000,0.539300,0.539300,0.539300,0.540000,0.540200,0.540700,0.540900,0.541000,0.541000,0.540100,0.540100,0.540000,0.539900,0.539800,0.539200,0.538100,0.538000,0.537900,0.537800,0.537700,0.537600,0.537500,0.537300,0.537200,0.537100,0.536800,0.536400,0.538400,0.538300,0.538200,1.000000,0.495800,0.495800,0.495800,1.000000,0.291400,0.291100,0.290200,0.290200,0.290200,0.290200,0.290900,0.291000,0.291100,0.290800,0.290400,0.290100,0.289900,0.289700,0.289600,0.289600,0.289600,0.289600,0.289600,0.289600,0.289500,0.289500,0.289300,0.289200,0.288900,0.288900,0.288800,0.288700,0.288700,0.288600,0.287500,0.287500,0.287500,0.287400,0.287400,0.287400,0.287300,0.287200,0.287100,0.287000,0.287000,0.287000,0.287000,0.287000,0.287000,0.287000,0.287000,0.286900,0.286800,0.286400,0.286300,0.286200,0.286000,0.285900,0.285800,0.285600,0.285500,0.285400,0.285300,0.285300,0.285100,0.284900,0.284800,0.284800,0.284800,0.284700,0.284700,0.284600,0.284600,0.284200,0.283600,0.283500,0.283300,0.283100,0.283000,0.282900,0.282800,0.282800,0.282900,0.283000,0.283100,0.283100,0.283000,0.282900,0.282800,0.282400,0.282200,0.282100,0.282000,0.281900,0.281900,0.281900,0.281900,1.000000,0.477800,0.477800,0.478700,0.479800,1.000000,1.000000,0.352800,0.352900,1.000000,0.480300,0.480400,0.480400,0.480900,0.480900,0.480800,0.480600,0.480300,0.480000,0.479900,0.479800,1.000000,1.000000,1.000000,1.000000,0.478000,0.477800,0.477700,0.477600,0.477600,0.477600,0.477700,0.477700,1.000000,1.000000,1.000000,1.000000,1.000000,1.000000,1.000000,1.000000,1.000000,0.476200,0.476400,0.476500,0.476600,0.476200,0.474800,0.474700,0.473300
1.000000,1.000000,1.000000,1.000000,1.000000,1.000000,1.000000,1.000000,1.000000,1.000000,1.000000,1.000000,1.000000,1.000000,1.000000,1.000000,1.000000,1.000000,1.000000,1.000000,1.000000,1.000000,1.000000,1.000000,1.000000,1.000000,1.000000,1.000000,1.000000,1.000000,1.000000,1.000000,1.000000,1.000000,1.000000,1.000000,0.546300,0.546400,0.546500,1.000000,1.000000,1.000000,0.546000,0.546200,0.546400,1.000000,1.000000,0.545600,0.545600,0.545600,0.545600,0.546100,0.546200,0.546000,0.544600,0.544200,0.543900,0.543600,0.543500,0.543500,0.543400,0.543300,0.543200,0.543100,0.543000,0.544200,0.544100,0.541800,0.541200,0.539800,0.539700,0.540000,0.541300,0.541400,0.541300,0.541200,0.540500,1.000000,0.539300,0.539300,0.539900,0.539900,0.539900,0.539900,0.540500,0.540700,0.540200,0.540100,0.540000,0.539900,0.539800,0.538800,0.538400,0.538200,0.538100,0.537900,0.537900,0.537800,0.537600,0.537500,0.537300,0.537200,0.537000,0.536300,0.536300,0.536300,0.538200,0.538200,1.000000,0.495800,0.495800,0.495700,1.000000,0.291300,0.290200,0.290100,0.290100,0.290100,0.290100,0.290100,0.291100,0.291200,0.291200,0.290300,0.290000,0.289800,0.289600,0.289600,0.289600,0.289600,0.289600,0.289600,0.289500,0.289500,0.289400,0.289300,0.289200,0.289000,0.288900,0.288800,0.288700,0.288700,0.288600,0.287500,0.287400,0.287400,0.287400,0.287400,0.287400,0.287300,0.287200,0.287100,0.287000,0.287000,0.287000,0.287000,0.287000,0.287000,0.287000,0.286900,0.286900,0.286700,0.286400,0.286300,0.286200,0.286000,0.285900,0.285800,0.285600,0.285500,0.285300,0.285300,0.285200,0.284900,0.284800,0.284800,0.284800,0.284800,0.284700,0.284700,0.284500,0.284300,0.284000,0.283600,0.283500,0.283300,0.283100,0.283000,0.282900,0.282800,0.282800,0.282900,0.282900,0.283000,0.283000,0.283000,0.282900,0.282400,0.282200,0.282100,0.282000,0.281900,0.281900,0.281800,0.281800,1.000000,1.000000,0.477900,0.477900,0.478700,0.479600,0.479600,1.000000,0.352800,0.352800,1.000000,0.480300,0.480300,0.480300,0.480400,0.480700,0.480700,0.480400,0.480300,0.479900,0.479800,0.479600,0.479300,1.000000,1.000000,1.000000,0.478000,0.477700,0.477600,0.477600,0.477600,0.477600,0.477700,0.477800,1.000000,1.000000,1.000000,1.000000,1.000000,1.000000,1.000000,1.000000,1.000000,0.476300,0.476400,0.476400,0.476400,0.474800,0.474600,0.474600,0.473300
1.000000,1.000000,1.000000,1.000000,1.000000,1.000000,1.000000,1.000000,1.000000,1.000000,1.000000,1.000000,1.000000,1.000000,1.000000,1.000000,1.000000,1.000000,1.000000,1.000000,1.000000,1.000000,1.000000,1.000000,1.000000,1.000000,1.000000,1.000000,1.000000,1.000000,1.000000,1.000000,1.000000,1.000000,1.000000,1.000000,0.546300,0.546300,0.546300,0.544700,1.000000,0.545700,0.546200,0.546400,0.546500,1.000000,1.000000,0.545700,0.545600,0.545600,0.545400,0.545000,0.544700,0.544600,0.544500,0.544400,0.544400,0.543600,0.543500,0.543400,0.543400,0.543300,0.543200,0.542100,0.541900,0.541800,0.541800,0.541800,0.540400,0.540200,0.540200,0.540200,0.540200,0.541400,0.541400,0.541300,0.540400,0.539800,0.539600,0.540000,0.539900,0.539900,0.539800,0.539700,0.539700,0.539800,0.539800,0.539700,0.539700,0.539600,0.538700,0.538700,0.538600,0.538400,0.539000,0.538900,0.538500,0.537800,0.537600,0.537400,0.537300,0.537200,0.537100,0.536300,0.536200,0.536200,0.538100,0.538000,1.000000,1.000000,0.495300,0.493900,1.000000,0.291100,0.290100,0.290100,0.290100,0.290000,0.290000,0.290000,0.291200,0.291300,0.290200,0.290200,0.289900,0.289700,0.289500,0.289500,0.289500,0.289500,0.289600,0.289500,0.289400,0.289300,0.289200,0.289200,0.289000,0.288900,0.288800,0.288700,0.288600,0.288600,0.288600,0.287500,0.287400,0.287400,0.287400,0.287300,0.287200,0.287100,0.287000,0.287000,0.287000,0.286900,0.286900,0.286900,0.286900,0.286800,0.286800,0.286400,0.286300,0.286300,0.286300,0.286300,0.286200,0.286000,0.285800,0.285700,0.285500,0.285400,0.285300,0.285100,0.284900,0.284800,0.284700,0.284700,0.284800,0.284800,0.284700,0.284600,0.284400,0.284100,0.284000,0.283700,0.283600,0.283300,0.283200,0.283100,0.282900,0.282800,0.282800,0.282800,0.282800,0.282900,0.283000,0.282900,0.282800,0.282100,0.282100,0.282000,0.281900,0.281800,0.281800,0.281800,0.281700,0.281700,1.000000,0.477900,0.477900,0.478800,0.479400,0.479400,1.000000,1.000000,1.000000,0.480200,0.480200,0.480200,0.480200,0.480100,0.480100,0.480400,0.480100,0.479700,0.479500,0.479300,0.479200,0.479000,1.000000,1.000000,1.000000,1.000000,0.477600,0.477600,0.477500,0.477500,0.477600,0.477600,0.477800,0.478000,1.000000,1.000000,1.000000,1.000000,1.000000,1.000000,1.000000,1.000000,0.476300,0.476300,0.476300,0.474800,0.474700,0.474600,0.474400,0.473700
1.000000,1.000000,1.000000,1.000000,1.000000,1.000000,1.000000,1.000000,1.000000,1.000000,1.000000,1.000000,1.000000,1.000000,1.000000,1.000000,1.000000,1.000000,1.000000,1.000000,1.000000,1.000000,1.000000,1.000000,1.000000,1.000000,1.000000,1.000000,1.000000,1.000000,1.000000,1.000000,1.000000,1.000000,1.000000,1.000000,0.546200,0.546200,0.546100,0.544400,0.544300,0.544600,0.546400,0.546400,0.546400,0.546400,0.546100,0.545800,0.545700,0.545500,0.545100,0.544900,0.544700,0.544600,0.544600,0.544500,0.544400,0.544400,0.543400,0.543400,0.543400,0.543400,0.543300,0.542100,0.541500,0.541500,0.541800,0.541900,0.541900,0.540200,0.540200,0.540200,0.540100,0.541400,0.541400,0.540300,0.540300,0.540500,0.540500,0.540600,0.540100,0.539900,0.539800,0.539700,0.539700,0.539600,0.539600,0.538800,0.538700,0.538700,0.538700,0.538700,0.538700,0.538800,0.538900,0.538900,0.538800,0.538700,0.537600,0.537500,0.537400,0.537500,0.537500,0.536600,0.536200,0.536300,0.537300,0.537100,1.000000,0.493800,0.493800,0.493800,1.000000,0.290600,0.290000,0.290000,0.290000,0.290000,0.290000,0.289900,0.289800,0.289700,0.290000,0.290000,0.289700,0.289500,0.289300,0.289300,0.289200,0.289300,0.289500,0.289400,0.289400,0.289100,0.289000,0.289000,0.288900,0.288800,0.288700,0.288600,0.288600,0.288600,0.287500,0.287500,0.287400,0.287400,0.287300,0.287200,0.287100,0.287000,0.287000,0.286900,0.286900,0.286900,0.286900,0.286900,0.286800,0.286500,0.286300,0.286200,0.286200,0.286200,0.286200,0.286200,0.286200,0.285900,0.285400,0.285300,0.284400,0.284400,0.284400,0.284500,0.284600,0.284600,0.284600,0.284600,0.284700,0.284700,0.284700,0.284600,0.284000,0.283900,0.283800,0.283700,0.283600,0.283300,0.283200,0.283100,0.282900,0.282800,0.282800,0.282700,0.282700,0.282700,0.282800,0.282800,0.282500,0.282100,0.282000,0.281900,0.281900,0.281800,0.281800,0.281800,0.281700,1.000000,1.000000,1.000000,0.479200,0.479300,0.479400,0.479400,0.351600,0.351600,1.000000,0.480100,0.480100,0.480200,0.480100,0.480000,0.479800,0.479700,0.479600,0.479600,0.479400,0.479200,0.479100,0.479000,0.478900,1.000000,1.000000,1.000000,0.475800,0.477400,0.477400,0.477400,0.477500,0.477500,0.477600,0.477600,1.000000,1.000000,1.000000,1.000000,1.000000,1.000000,1.000000,1.000000,1.000000,0.476200,0.476200,0.474800,0.474600,0.474400,0.474300,0.473800
1.000000,1.000000,1.000000,1.000000,1.000000,1.000000,1.000000,1.000000,1.000000,1.000000,1.000000,1.000000,1.000000,1.000000,1.000000,1.000000,1.000000,1.000000,1.000000,1.000000,1.000000,1.000000,1.000000,1.000000,1.000000,1.000000,1.000000,1.000000,1.000000,1.000000,1.000000,1.000000,1.000000,1.000000,1.000000,1.000000,0.546100,0.546100,0.544300,0.544000,0.543900,0.543800,0.546300,0.546300,0.546300,1.000000,1.000000,0.547300,0.547900,0.547000,0.545000,0.544900,0.544800,0.544800,0.544700,0.546000,0.544500,0.544500,0.543400,0.543400,0.543400,0.543400,0.543400,0.542000,0.541500,0.541500,0.541700,0.541900,0.542000,0.540100,0.540000,0.540000,0.539900,0.539900,0.539900,0.539900,0.540100,0.540400,0.540600,0.540600,0.540200,0.540000,0.539900,0.539700,0.539600,0.539600,0.538700,0.538600,0.538600,0.538600,0.538600,0.538700,0.538800,0.538800,0.538900,0.538800,0.538800,0.537800,0.537600,0.537600,0.537600,0.537600,0.537600,0.537600,0.536400,0.536400,0.536400,0.536400,1.000000,0.493800,0.493800,0.493800,1.000000,0.290700,0.290000,0.290100,0.290100,0.290100,0.290100,0.289900,0.289800,0.289600,0.289600,0.289600,0.289600,0.289500,0.289300,0.289100,0.289000,0.289000,0.289200,0.289200,0.289100,0.288900,0.288800,0.288700,0.288600,0.288600,0.288500,0.288500,0.288400,0.288300,0.287500,0.287400,0.287400,0.287300,0.287200,0.287000,0.286900,0.286900,0.286900,0.286800,0.286800,0.286800,0.286700,0.286600,0.286400,0.286100,0.286000,0.286000,0.286100,0.286200,0.286200,0.286200,0.286200,0.285400,0.285300,0.285100,0.284400,0.284400,0.284400,0.284400,0.284500,0.284500,0.284600,0.284600,0.284600,0.284600,0.284600,0.284600,0.283800,0.283800,0.283800,0.283700,0.283600,0.283400,0.283300,0.283200,0.282900,0.282800,0.282700,0.282700,0.282500,0.282400,0.282200,0.282100,0.282000,0.282000,0.281900,0.281900,0.281800,0.281800,0.281800,0.281800,0.281700,0.281600,1.000000,1.000000,0.477300,0.479300,0.479400,1.000000,1.000000,1.000000,0.480000,0.480000,0.480100,0.480100,0.480000,0.479800,0.479700,0.479600,0.479600,0.479600,0.479400,0.479200,0.479000,0.478900,0.478800,1.000000,1.000000,1.000000,1.000000,1.000000,0.477200,0.477200,0.477400,0.477500,0.477600,0.477600,1.000000,1.000000,1.000000,1.000000,1.000000,1.000000,1.000000,1.000000,1.000000,0.476200,0.476100,0.476100,0.475800,0.474300,0.474200,0.474000
1.000000,1.000000,1.000000,1.000000,1.000000,1.000000,1.000000,1.000000,1.000000,1.000000,1.000000,1.000000,1.000000,1.000000,1.000000,1.000000,1.000000,1.000000,1.000000,1.000000,1.000000,1.000000,1.000000,1.000000,1.000000,1.000000,1.000000,1.000000,0.751000,0.750900,1.000000,1.000000,1.000000,1.000000,1.000000,1.000000,1.000000,0.544300,0.544200,0.543900,0.543900,0.543800,0.544800,0.546200,0.546100,0.546100,1.000000,0.547300,0.547900,0.547900,0.546800,0.545000,0.544900,0.544800,0.544800,0.546000,0.544400,0.544300,0.543300,0.543000,0.542900,0.543500,0.542000,0.541900,0.541600,0.541600,0.541700,0.542000,0.542100,0.540000,0.540000,0.539900,0.539900,0.539900,0.539900,0.539900,0.539900,0.539900,0.540600,0.540500,0.540200,0.540000,0.539900,0.539700,0.539600,0.539600,0.538700,0.538600,0.538600,0.538600,0.538600,0.538700,0.538700,0.538600,0.538400,0.538000,0.537900,0.537700,0.537600,0.537600,0.537600,0.537600,0.537600,0.536800,0.536500,0.536400,0.536400,0.536400,0.536400,0.493700,0.493700,0.493700,1.000000,1.000000,0.290100,0.290100,0.290100,0.290200,0.290200,0.289800,0.289600,0.289600,0.289500,0.289500,0.289400,0.289300,0.289200,0.289100,0.289000,0.289000,0.289000,0.289000,0.289000,0.288800,0.288700,0.288600,0.288500,0.288400,0.288400,0.288400,0.288400,0.288300,0.287400,0.287400,0.287400,0.287300,0.287200,0.287000,0.286900,0.286800,0.286800,0.286800,0.286800,0.286700,0.286600,0.286400,0.286200,0.286000,0.286000,0.286000,0.286000,0.286100,0.286100,0.285400,0.285300,0.285300,0.285200,0.285200,0.284400,0.284300,0.284300,0.284300,0.284400,0.284400,0.284500,0.284500,0.284500,0.284500,0.284000,0.283800,0.283700,0.283700,0.283700,0.283600,0.283500,0.283400,0.283300,0.283200,0.283000,0.282900,0.282700,0.282500,0.282200,0.282200,0.282100,0.282100,0.282000,0.281900,0.281900,0.281800,0.281800,0.281800,0.281800,0.281700,0.281600,1.000000,1.000000,1.000000,0.477200,0.477200,0.477200,1.000000,0.348800,1.000000,0.480000,0.480000,0.480100,0.480100,0.480000,0.479800,0.479700,0.479600,0.479600,0.479600,0.479600,0.479500,0.479000,0.478800,0.478800,1.000000,1.000000,1.000000,1.000000,0.476700,0.476900,0.477000,0.477300,0.477400,0.477500,0.477600,1.000000,1.000000,1.000000,1.000000,1.000000,1.000000,1.000000,1.000000,1.000000,0.474800,0.476000,0.476000,0.475900,0.474400,0.474300,0.474000
1.000000,1.000000,1.000000,1.000000,1.000000,1.000000,1.000000,1.000000,1.000000,1.000000,1.000000,1.000000,1.000000,1.000000,1.000000,1.000000,1.000000,1.000000,1.000000,1.000000,1.000000,1.000000,1.000000,1.000000,1.000000,1.000000,1.000000,1.000000,0.751100,0.750900,1.000000,1.000000,1.000000,1.000000,1.000000,1.000000,1.000000,1.000000,0.544200,0.544000,0.543900,0.543900,0.544200,0.544700,0.545100,1.000000,1.000000,1.000000,0.546500,0.546600,0.545000,0.545000,0.544900,0.544800,0.544800,0.544500,0.544300,0.543900,0.542800,0.542800,0.540600,0.540600,0.540600,0.540600,0.540700,0.541400,0.541400,0.542100,0.542100,0.540000,0.539900,0.539900,0.539900,0.541100,0.539900,0.539900,0.539900,0.539800,0.539000,0.538000,0.538100,0.538300,0.538900,0.539400,0.539600,0.538800,0.538700,0.538600,0.538600,0.538600,0.538600,0.538600,0.538600,0.538500,0.538400,0.538000,0.537900,0.537700,0.537600,0.537500,0.537500,0.537500,0.537500,0.536600,0.536600,0.536400,0.536400,0.536400,0.536400,0.493700,0.493700,0.493700,1.000000,1.000000,0.290100,0.290100,0.290200,0.290300,0.290300,0.290300,0.289700,0.289600,0.289500,0.289500,0.289400,0.289300,0.289200,0.289000,0.289000,0.288900,0.288900,0.288900,0.288900,0.288700,0.288600,0.288400,0.288300,0.288300,0.288300,0.288300,0.288400,0.288400,0.287400,0.287400,0.287400,0.287300,0.287200,0.286900,0.286900,0.286800,0.286800,0.286900,0.286800,0.286700,0.286400,0.286300,0.286000,0.285800,0.285800,0.285800,0.285900,0.286000,0.285300,0.285300,0.285300,0.285300,0.285200,0.285200,0.285200,0.284300,0.284300,0.284300,0.284400,0.284400,0.284400,0.284400,0.284500,0.284400,0.284000,0.283800,0.283700,0.283600,0.283600,0.283500,0.283500,0.283400,0.283300,0.283200,0.283100,0.283100,0.282800,0.282400,0.282100,0.282000,0.282000,0.281900,0.281900,0.281800,0.281800,0.281800,0.281800,0.281800,0.281800,0.281700,0.281500,0.281400,1.000000,0.477200,0.477200,0.477200,1.000000,1.000000,1.000000,1.000000,0.480000,0.480000,0.480100,0.480200,0.480100,0.479800,0.479700,0.479600,0.479600,0.479600,0.479700,0.479900,0.480000,0.480000,0.480000,1.000000,1.000000,1.000000,1.000000,1.000000,0.476700,0.476800,0.477300,0.477500,0.477600,0.477600,1.000000,1.000000,1.000000,1.000000,1.000000,1.000000,1.000000,1.000000,1.000000,0.475400,0.476000,0.476000,0.475700,0.474500,0.474400,0.474100
1.000000,1.000000,1.000000,1.000000,1.000000,1.000000,1.000000,1.000000,1.000000,1.000000,1.000000,1.000000,1.000000,1.000000,1.000000,1.000000,1.000000,1.000000,1.000000,1.000000,1.000000,1.000000,1.000000,1.000000,1.000000,1.000000,0.751600,0.751600,1.000000,1.000000,1.000000,1.000000,1.000000,1.000000,1.000000,1.000000,0.544300,0.544300,0.544200,0.544100,0.544000,0.544000,0.544400,0.544600,0.544800,0.545000,1.000000,0.545100,0.545100,0.545100,0.545000,0.545000,0.544800,0.544800,0.544700,0.542700,0.542700,0.542900,0.542800,0.542700,0.540600,0.540600,0.540600,0.540600,0.540700,0.541200,0.541300,0.541300,0.542200,0.541300,0.539900,0.539900,0.539900,0.541800,0.540700,0.540000,0.539900,0.539700,0.539000,0.538000,0.538000,0.538100,0.538800,0.538900,0.539000,0.538800,0.538700,0.538700,0.538600,0.538600,0.538600,0.538600,0.538500,0.538400,0.538400,0.538100,0.537900,0.537700,0.537500,0.537500,0.537400,0.537400,0.537300,0.536600,0.536500,0.536400,0.536400,0.536400,0.536400,0.493700,0.493700,0.493700,1.000000,1.000000,0.290000,0.290100,0.290100,0.290300,0.290300,0.290300,0.289800,0.289600,0.289600,0.289500,0.289400,0.289300,0.289200,0.289100,0.289000,0.288900,0.288900,0.288900,0.288900,0.288700,0.288600,0.288400,0.288200,0.288200,0.288200,0.288300,0.288400,0.288400,0.287400,0.287400,0.287400,0.287300,0.287300,0.287000,0.286900,0.286900,0.286900,0.286900,0.286900,0.286700,0.286300,0.286200,0.285900,0.285800,0.285800,0.285800,0.285900,0.285900,0.285200,0.285200,0.285200,0.285200,0.285200,0.285200,0.285200,0.285000,0.284300,0.284300,0.284300,0.284400,0.284400,0.284400,0.284400,0.284400,0.284000,0.283700,0.283600,0.283600,0.283600,0.283500,0.283400,0.283300,0.283300,0.283200,0.283200,0.283200,0.283200,0.282400,0.282100,0.282000,0.281900,0.281800,0.281800,0.281800,0.281800,0.281800,0.281800,0.281800,0.281800,0.281700,0.281400,0.281400,1.000000,0.477200,0.477200,0.477200,1.000000,0.348800,0.348800,1.000000,0.480000,0.480000,0.480100,0.480300,0.480300,0.480300,0.480400,0.480300,0.479600,0.479700,0.479800,0.480100,0.480100,0.480000,0.480000,0.478400,1.000000,1.000000,1.000000,1.000000,0.476600,0.476600,0.477300,0.477500,0.477600,0.477600,1.000000,1.000000,1.000000,1.000000,1.000000,1.000000,1.000000,1.000000,1.000000,0.475500,0.476000,0.476000,0.474800,0.474600,0.474500,0.474200
1.000000,1.000000,1.000000,1.000000,1.000000,1.000000,1.000000,1.000000,1.000000,1.000000,1.000000,1.000000,1.000000,1.000000,1.000000,1.000000,0.756300,1.000000,1.000000,1.000000,1.000000,1.000000,1.000000,1.000000,1.000000,1.000000,0.751700,0.751700,1.000000,1.000000,1.000000,1.000000,1.000000,1.000000,0.744100,1.000000,1.000000,0.545600,0.545600,0.545600,0.544300,0.544200,0.544500,0.544600,0.544700,0.544800,0.544900,0.545100,0.545100,0.545200,0.545100,0.545000,0.544800,0.543400,0.542600,0.542600,0.542700,0.542700,0.542700,0.540600,0.540600,0.540600,1.000000,1.000000,1.000000,0.541200,1.000000,0.541300,0.542400,0.542400,0.541300,0.541300,0.541600,0.541700,0.541800,0.540800,0.540800,0.539800,0.538800,0.538000,0.538000,0.538000,0.538800,0.538800,0.539000,0.538900,0.538900,0.538800,0.538700,0.538600,0.538400,0.538400,0.538400,0.538400,0.538300,0.538200,0.538100,0.537700,0.537300,0.537200,0.537000,0.536800,0.536600,0.536400,0.536400,0.536400,0.536400,0.536400,0.535400,1.000000,0.493700,0.493600,1.000000,1.000000,0.289900,0.289900,0.289900,0.290200,0.290200,0.289900,0.289800,0.289700,0.289600,0.289600,0.289500,0.289400,0.289200,0.289100,0.289000,0.288900,0.288900,0.288900,0.288900,0.288900,0.288900,0.288300,0.288200,0.288200,0.288200,0.288200,0.288400,0.288400,0.287400,0.287400,0.287400,0.287400,0.287400,0.287200,0.287000,0.287000,0.287000,0.287100,0.287200,0.287200,0.286300,0.286000,0.285800,0.285800,0.285800,0.285800,0.285700,0.285200,0.285100,0.285100,0.285100,0.285200,0.285200,0.285200,0.285200,0.285200,0.284300,0.284300,0.284300,0.284300,0.284400,0.284400,0.284500,0.284400,0.284400,0.283700,0.283600,0.283600,0.283500,0.283400,0.283400,0.283300,0.283300,0.283300,0.283300,0.283300,0.283300,0.283200,0.282000,0.281900,0.281900,0.281800,0.281800,0.281800,0.281800,0.281800,0.281800,0.281800,0.281800,0.281700,0.281400,1.000000,1.000000,1.000000,1.000000,1.000000,1.000000,0.348800,0.348800,1.000000,0.478200,0.478300,0.480000,0.480400,0.480400,0.480400,0.480400,0.480400,0.480300,0.480200,0.480200,0.480200,0.480100,0.480000,0.479400,0.477200,0.477200,1.000000,1.000000,1.000000,0.476500,0.476600,0.477600,0.477600,0.477700,0.477700,1.000000,1.000000,1.000000,1.000000,1.000000,1.000000,1.000000,1.000000,1.000000,0.475400,0.476100,0.476100,0.474800,0.474700,0.474500,0.474300
1.000000,1.000000,1.000000,1.000000,1.000000,1.000000,1.000000,1.000000,1.000000,1.000000,1.000000,1.000000,1.000000,1.000000,1.000000,1.000000,1.000000,1.000000,1.000000,1.000000,1.000000,1.000000,1.000000,1.000000,1.000000,1.000000,0.751800,0.751800,1.000000,1.000000,1.000000,1.000000,1.000000,1.000000,0.744100,1.000000,1.000000,1.000000,0.547000,0.545600,0.544700,0.544700,0.544700,0.544700,0.544700,0.544700,0.544800,0.545000,0.545200,0.545300,0.545300,0.545300,0.544800,0.543400,0.542700,0.542700,0.542700,1.000000,0.542700,0.540500,0.540500,1.000000,0.540600,1.000000,0.542700,0.541100,0.541200,0.541200,0.542400,0.542500,0.541200,0.541100,0.541100,0.541100,0.540800,0.540800,0.540800,0.540800,0.538800,0.538000,0.538000,0.538100,0.538700,0.538800,0.539000,0.539000,0.539000,0.538900,0.538900,0.538500,0.538400,0.538400,0.538400,0.537700,0.537800,0.538100,0.538200,0.538200,0.538200,0.537000,0.536800,0.536700,0.536500,0.536400,0.536300,0.536200,0.536200,0.535400,0.535300,1.000000,0.493500,0.493500,1.000000,1.000000,0.289800,0.289800,0.289700,0.289700,0.289800,0.289800,0.289900,0.289800,0.289800,0.289700,0.289500,0.289400,0.289300,0.289200,0.289000,0.288900,0.288900,0.288900,0.288900,0.288900,0.288900,0.288900,0.288000,0.288000,0.288100,0.288200,0.288300,0.288400,0.287400,0.287400,0.287400,0.287400,0.287400,0.287300,0.287200,0.287200,0.287200,0.287200,0.287200,0.287200,0.286200,0.286000,0.285900,0.285800,0.285800,0.285800,0.285300,0.285100,0.285000,0.285000,0.285100,0.285200,0.285300,0.285300,0.285300,0.285300,0.284300,0.284300,0.284300,0.284300,0.284400,0.284400,0.284500,0.284600,0.284600,0.284500,0.283600,0.283600,0.283500,0.283400,0.283400,0.283300,0.283300,0.283300,0.283300,0.283300,0.283200,0.283100,0.283100,0.281800,0.281800,0.281800,0.281800,0.281800,0.281800,0.281900,0.281900,0.281900,0.281800,0.281800,0.281300,1.000000,1.000000,1.000000,0.477000,0.477600,0.477600,0.350200,0.350200,1.000000,0.478100,0.478100,0.478200,0.480000,0.480500,0.480500,0.480400,0.480400,0.480400,0.480400,0.480400,0.480400,0.480300,0.480200,0.479200,0.477200,0.477200,1.000000,1.000000,1.000000,0.476700,0.476700,0.477600,0.477700,0.477700,0.477800,1.000000,1.000000,1.000000,1.000000,1.000000,1.000000,1.000000,1.000000,1.000000,0.476300,0.476200,0.476300,0.476300,0.474700,0.474600,0.474500
1.000000,1.000000,1.000000,1.000000,1.000000,1.000000,1.000000,1.000000,1.000000,1.000000,0.751400,0.751400,1.000000,1.000000,1.000000,0.754700,0.754600,0.754600,1.000000,1.000000,1.000000,1.000000,1.000000,1.000000,1.000000,1.000000,0.751900,0.751900,0.753500,1.000000,1.000000,1.000000,1.000000,1.000000,1.000000,1.000000,1.000000,1.000000,1.000000,0.547900,0.544800,0.544800,0.544800,0.544700,0.544500,0.544200,0.543900,0.543800,0.543800,0.545400,0.545400,0.545400,0.543400,0.543300,0.543300,0.542800,0.542700,1.000000,1.000000,0.541400,0.540500,1.000000,0.540600,1.000000,0.542800,0.542800,1.000000,0.542200,0.542500,0.542600,0.542600,0.541000,0.541000,0.541000,0.540800,0.540800,0.541000,0.541000,0.541000,0.538400,0.538400,0.538600,0.538700,0.538800,0.538900,0.539000,0.539100,0.539100,0.538900,0.538500,0.538400,0.538400,0.538400,0.537000,0.536900,0.536900,0.538100,0.538100,0.537900,0.536800,0.536600,0.536400,0.536300,0.536100,0.536000,0.535600,0.535400,0.535300,0.535300,1.000000,0.492500,0.492500,1.000000,1.000000,0.289700,0.289600,0.289600,0.289600,0.289700,0.289700,0.289900,0.289900,0.289900,0.289800,0.289600,0.289500,0.289300,0.289200,0.289000,0.288900,0.288900,0.288900,0.288900,0.288900,0.288900,0.289000,0.287900,0.287900,0.288000,0.288100,0.288300,0.288300,0.288400,0.287400,0.287400,0.287400,0.287500,0.287400,0.287400,0.287300,0.287300,0.287300,0.287300,0.286400,0.286200,0.286100,0.286000,0.285900,0.285900,0.285800,0.285200,0.285100,0.285000,0.285000,0.285100,0.285200,0.285300,0.285300,0.285300,0.285300,0.284200,0.284100,0.284200,0.284300,0.284400,0.284500,0.284600,0.284600,0.284600,0.283700,0.283600,0.283600,0.283600,0.283500,0.283400,0.283300,0.283200,0.283200,0.283200,0.283200,0.283200,0.283100,0.283000,0.281800,0.281800,0.281800,0.281800,0.281800,0.281800,0.281900,0.281900,0.281800,0.281800,0.281800,0.281300,0.281200,1.000000,1.000000,0.476900,0.477200,1.000000,0.350300,0.350300,1.000000,0.478100,0.478100,0.478200,0.478500,0.478500,0.478400,0.478300,0.478300,0.480400,0.480400,0.480400,0.480400,0.480300,0.479100,0.479000,0.477500,0.477400,0.477000,1.000000,1.000000,1.000000,0.477600,0.477600,0.477600,0.476300,0.476200,0.475900,1.000000,1.000000,1.000000,1.000000,1.000000,1.000000,1.000000,0.477700,0.477700,1.000000,0.476300,1.000000,0.474600,1.000000,1.000000
1.000000,1.000000,1.000000,0.755300,0.755300,1.000000,1.000000,1.000000,1.000000,1.000000,1.000000,1.000000,1.000000,1.000000,1.000000,0.754500,0.754500,0.754500,1.000000,1.000000,1.000000,1.000000,1.000000,1.000000,1.000000,1.000000,1.000000,1.000000,1.000000,0.752200,1.000000,1.000000,1.000000,1.000000,1.000000,1.000000,1.000000,1.000000,0.550300,0.547900,0.544900,0.544900,0.544900,0.544800,0.544700,0.544100,0.543900,0.543800,0.543700,0.545400,0.545400,0.545400,0.543300,0.543300,0.543300,0.543100,0.542800,0.542600,0.542400,0.542400,0.540500,0.540600,0.540600,0.540700,0.542800,0.542200,0.541900,0.542000,0.542400,0.542500,0.542500,0.540900,0.540800,0.540000,0.540000,0.540000,0.541100,0.541100,0.541100,0.538600,0.538600,0.538600,0.538700,0.538700,0.538600,0.538600,0.539100,0.539100,0.538800,0.538700,0.538500,0.538500,0.538500,0.537000,0.537000,0.537000,0.537000,0.537700,0.537600,0.537400,0.536400,0.536300,0.536100,0.535900,0.535800,0.535500,0.535400,0.535300,0.535200,1.000000,0.492500,0.492500,1.000000,0.289900,0.289700,0.289600,0.289600,0.289600,0.289600,0.289700,0.289900,0.289900,0.289900,0.289800,0.289500,0.289400,0.289200,0.289100,0.288900,0.288900,0.288800,0.288800,0.288800,0.288800,0.288800,0.288700,0.287600,0.287600,0.287700,0.288000,0.288100,0.288200,0.288200,0.287200,0.287200,0.287300,0.287400,0.287400,0.287400,0.287300,0.287300,0.286100,0.286200,0.286300,0.286300,0.286200,0.286100,0.286000,0.285900,0.285700,0.285300,0.285100,0.285000,0.285000,0.285000,0.285200,0.285300,0.285400,0.285300,0.285300,0.284000,0.284000,0.284000,0.284200,0.284300,0.284500,0.284500,0.284600,0.284500,0.283700,0.283600,0.283600,0.283600,0.283500,0.283400,0.283300,0.283200,0.283100,0.283000,0.283100,0.283100,0.283000,0.282900,0.281800,0.281800,0.281800,0.281800,0.281800,0.281800,0.281800,0.281400,0.281100,0.281100,0.281600,0.281300,0.281000,1.000000,1.000000,0.476500,0.476900,1.000000,0.350400,0.350400,0.478000,0.478000,0.478100,0.478300,0.478500,0.478300,0.478300,0.478200,0.478200,0.479500,0.480400,0.480400,0.480400,0.479100,0.479000,0.479000,0.477500,0.477400,0.476900,1.000000,0.376800,1.000000,1.000000,1.000000,0.476300,0.476300,0.473500,1.000000,1.000000,1.000000,1.000000,1.000000,1.000000,1.000000,1.000000,1.000000,1.000000,1.000000,1.000000,1.000000,1.000000,1.000000,1.000000
1.000000,1.000000,0.752900,0.755300,0.758400,0.758400,1.000000,1.000000,1.000000,1.000000,1.000000,1.000000,1.000000,1.000000,1.000000,0.754300,0.754400,1.000000,1.000000,1.000000,1.000000,1.000000,1.000000,1.000000,1.000000,1.000000,1.000000,0.752200,1.000000,0.752200,1.000000,1.000000,1.000000,1.000000,1.000000,1.000000,1.000000,0.550300,1.000000,0.546100,0.545000,0.545000,0.545000,0.545900,0.546000,0.546000,0.543800,0.543800,0.543700,0.545400,0.545400,0.545400,0.543300,0.543300,0.543300,0.543300,0.542800,0.542600,0.542400,0.542300,0.540600,0.540600,0.540600,0.540700,0.540800,0.541600,0.541800,0.541800,0.542300,0.542400,0.542400,0.540900,0.540000,0.540000,0.539900,0.539900,0.541300,0.541200,0.541200,0.538700,0.538700,0.538700,0.538700,0.538600,0.538500,0.538400,0.538400,0.538400,0.538700,0.538600,0.538600,0.538500,0.538500,0.538400,0.537000,0.537100,0.537200,0.537500,0.537500,0.537500,0.536000,0.535700,0.535700,0.535700,0.535600,0.535500,0.535400,0.535300,0.535200,1.000000,0.493600,0.492500,1.000000,0.289900,0.289800,0.289700,0.289600,0.289600,0.289600,0.289600,0.289900,0.289900,0.289800,0.289700,0.289400,0.289300,0.289100,0.289000,0.288900,0.288800,0.288800,0.288800,0.288800,0.288700,0.288700,0.288600,0.287500,0.287500,0.287600,0.287800,0.288100,0.288100,0.287200,0.287000,0.287000,0.286900,0.286900,0.287400,0.287400,0.286100,0.286000,0.286100,0.286100,0.286300,0.286300,0.286200,0.286200,0.285900,0.285800,0.285500,0.285300,0.285100,0.285000,0.285000,0.285000,0.285200,0.285300,0.285300,0.285300,0.285200,0.284000,0.284000,0.284000,0.284100,0.284300,0.284400,0.284400,0.284500,0.283800,0.283700,0.283600,0.283600,0.283600,0.283500,0.283400,0.283200,0.283100,0.283000,0.282900,0.283000,0.283000,0.283000,0.282900,0.281800,0.281800,0.281800,0.281800,0.281800,0.281800,0.281800,0.281200,0.281100,0.281000,0.280900,0.280900,0.280900,1.000000,1.000000,0.475900,0.476900,1.000000,1.000000,0.350500,0.478000,0.478000,0.478100,0.478600,0.478400,0.478200,0.478200,0.478200,0.478200,0.479500,0.480400,0.480400,0.480400,0.479000,0.479000,0.479000,0.477500,0.477000,0.474500,1.000000,0.376800,1.000000,1.000000,1.000000,0.476300,1.000000,1.000000,1.000000,1.000000,1.000000,1.000000,1.000000,1.000000,1.000000,1.000000,1.000000,1.000000,1.000000,1.000000,1.000000,1.000000,1.000000,1.000000
1.000000,1.000000,1.000000,0.755300,0.758400,0.758400,0.755700,1.000000,1.000000,1.000000,1.000000,1.000000,1.000000,1.000000,1.000000,0.753300,0.754400,0.754400,1.000000,1.000000,1.000000,1.000000,1.000000,1.000000,1.000000,1.000000,1.000000,1.000000,1.000000,0.752200,1.000000,1.000000,1.000000,1.000000,1.000000,1.000000,0.550300,0.546200,0.546200,0.546100,0.546000,0.545800,0.545900,0.545900,0.545900,0.545900,0.545800,0.543700,0.543700,0.543700,0.545300,0.544600,0.543000,0.543200,0.543400,0.543500,0.542100,0.541000,0.542200,0.542200,0.540800,0.540700,0.540600,0.540700,0.540800,0.541600,0.541700,0.541700,0.542000,0.542300,0.542300,0.541400,0.540000,0.539900,0.539900,0.539900,1.000000,0.541100,1.000000,0.538800,0.538800,0.538700,0.538700,0.538500,0.538400,0.538300,0.538300,0.538300,0.538300,0.538400,0.538500,0.538500,0.538400,0.537300,0.537200,0.537200,0.537300,0.537400,0.537400,0.537400,0.535500,0.535500,0.535500,0.535500,0.535500,0.535400,0.535400,0.535300,0.535200,1.000000,0.493600,0.493600,1.000000,0.289900,0.289800,0.289700,0.289600,0.289600,0.289600,0.289500,0.289700,0.289800,0.289800,0.289600,0.289300,0.289200,0.289000,0.289000,0.288800,0.288800,0.288700,0.288700,0.288600,0.288600,0.288500,0.288400,0.287400,0.287400,0.287400,0.287500,0.287900,0.287200,0.287100,0.286900,0.286800,0.286800,0.286600,0.286400,0.286300,0.286100,0.286000,0.286000,0.286100,0.286200,0.286200,0.286200,0.285800,0.285600,0.285600,0.285400,0.285300,0.285200,0.285000,0.285000,0.285000,0.285000,0.285000,0.285100,0.285100,0.284000,0.283900,0.283900,0.283900,0.284000,0.284100,0.284200,0.284200,0.284000,0.283800,0.283700,0.283700,0.283600,0.283600,0.283600,0.283500,0.282700,0.282800,0.282800,0.282800,0.283000,0.283000,0.283000,0.282900,0.282800,0.282500,0.282000,0.281900,0.281800,0.281700,0.281500,0.281100,0.281100,0.281000,0.280900,0.280900,0.280800,1.000000,1.000000,1.000000,1.000000,1.000000,0.349100,0.350500,0.478100,0.478100,0.479200,0.479300,0.479000,0.478200,0.478200,0.478200,0.478200,0.479400,0.480400,0.480400,0.480400,0.479000,0.479000,0.477700,0.476500,0.475600,0.474700,1.000000,0.378200,0.378200,0.379800,1.000000,1.000000,1.000000,1.000000,1.000000,1.000000,1.000000,1.000000,1.000000,1.000000,1.000000,1.000000,1.000000,1.000000,1.000000,1.000000,1.000000,1.000000,1.000000,1.000000
1.000000,1.000000,1.000000,0.755300,1.000000,0.758400,0.755700,1.000000,1.000000,1.000000,1.000000,1.000000,1.000000,1.000000,1.000000,0.753300,0.753300,1.000000,1.000000,1.000000,1.000000,1.000000,1.000000,1.000000,1.000000,1.000000,1.000000,1.000000,1.000000,1.000000,1.000000,1.000000,1.000000,1.000000,1.000000,1.000000,1.000000,0.546200,0.546200,0.546200,0.546100,0.546000,0.546000,0.545900,0.545800,0.545800,0.544800,0.544800,0.543700,0.543800,0.544200,0.542800,0.542900,0.542800,0.544200,0.543900,0.541700,0.541000,0.541000,0.541000,0.540800,0.540700,0.540700,0.540700,0.541200,0.541600,0.541600,0.541600,0.541600,0.541500,0.542000,0.541900,0.540000,0.539900,0.539900,0.539900,0.539900,0.539700,0.539000,0.538700,0.538700,0.538600,0.538600,0.538400,0.538300,0.538200,0.538200,0.538200,0.538200,0.538200,0.538400,0.538400,0.538200,0.537300,0.537300,0.537300,0.537400,0.537400,0.537400,0.535500,0.535400,0.535400,0.535300,0.535300,0.535400,0.535400,0.535400,0.535300,0.535200,1.000000,0.493700,0.493700,1.000000,0.290000,0.290000,0.289900,0.289700,0.289600,0.289500,0.289500,0.289300,0.289200,0.289200,0.289200,0.289100,0.289100,0.289000,0.288900,0.288800,0.288700,0.288600,0.288500,0.288400,0.288300,0.288300,0.288100,0.287400,0.287400,0.287400,0.287300,0.287300,0.287100,0.287000,0.286800,0.286700,0.286700,0.286500,0.286400,0.286300,0.286100,0.286000,0.286000,0.286100,0.286200,0.286100,0.285800,0.285600,0.285600,0.285500,0.285400,0.285300,0.285300,0.285100,0.285000,0.285000,0.284900,0.284900,0.284700,0.284300,0.284000,0.283900,0.283900,0.283800,0.283900,0.284000,0.284100,0.284000,0.283900,0.283800,0.283700,0.283700,0.283700,0.283700,0.283600,0.282600,0.282600,0.282700,0.282700,0.282800,0.282900,0.283000,0.282900,0.282800,0.282700,0.282600,0.282100,0.282000,0.281700,0.281600,0.281400,0.281100,0.281000,0.280900,0.280800,0.280800,0.280800,0.280800,1.000000,1.000000,1.000000,1.000000,0.348100,1.000000,0.479200,0.479200,0.479300,0.479400,0.479500,0.478100,0.478100,0.478200,0.478200,0.479500,0.480400,0.480400,0.480400,0.479000,0.478900,0.476500,0.476300,0.476000,0.474700,1.000000,0.378100,0.379100,0.379900,0.379900,1.000000,1.000000,1.000000,1.000000,1.000000,1.000000,1.000000,1.000000,1.000000,1.000000,1.000000,0.377600,1.000000,1.000000,1.000000,1.000000,1.000000,1.000000,1.000000
1.000000,1.000000,1.000000,1.000000,0.755500,0.755600,0.755700,1.000000,1.000000,1.000000,1.000000,1.000000,1.000000,0.753600,0.753500,0.751900,0.750800,1.000000,1.000000,1.000000,1.000000,1.000000,1.000000,1.000000,1.000000,1.000000,1.000000,1.000000,1.000000,1.000000,1.000000,1.000000,1.000000,1.000000,1.000000,1.000000,1.000000,1.000000,0.546200,0.546200,0.546200,0.546000,0.546000,1.000000,0.545800,0.545100,0.543600,0.542800,0.542700,0.542600,0.542600,0.542700,0.542700,0.542800,0.544200,0.544200,0.543100,0.541100,0.541100,0.541000,0.540800,0.540800,0.540700,0.542000,0.541900,0.541800,0.541700,0.541600,0.541500,0.541400,0.541400,0.541400,0.540000,0.539900,0.539900,0.539900,1.000000,0.539300,0.538900,0.538600,0.538500,0.538500,0.538400,0.538400,0.538300,0.536800,0.538100,0.538100,0.536400,0.536400,0.536600,0.536800,0.537200,0.537300,0.537400,0.537400,0.537400,0.537300,0.535400,0.535400,0.535300,0.535200,0.535000,0.534800,0.535000,0.535400,0.535400,0.535300,0.535300,1.000000,0.493700,0.493600,1.000000,0.290000,0.290000,0.289900,0.289800,0.289600,0.289600,0.289400,0.289300,0.289200,0.289100,0.289100,0.289000,0.289000,0.289000,0.288900,0.288700,0.288600,0.288500,0.288400,0.288400,0.288200,0.288100,0.287900,0.287500,0.287400,0.287300,0.287300,0.287300,0.287100,0.287000,0.286800,0.286700,0.286600,0.286500,0.286400,0.286300,0.286200,0.286200,0.286200,0.286200,0.286100,0.285800,0.285600,0.285600,0.285500,0.285500,0.285400,0.285400,0.285300,0.285100,0.285000,0.284900,0.284800,0.284700,0.284400,0.284300,0.284000,0.284000,0.283900,0.283800,0.283800,0.283900,0.283900,0.283800,0.283800,0.283700,0.283600,0.283600,0.283600,0.283600,0.282600,0.282600,0.282600,0.282700,0.282700,0.282800,0.282900,0.282900,0.282800,0.282700,0.282600,0.282500,0.282200,0.281900,0.281600,0.281500,0.281400,0.281100,0.281100,0.280900,0.280800,0.280800,0.280700,0.280700,1.000000,1.000000,1.000000,1.000000,0.348000,1.000000,1.000000,0.479400,0.479400,0.479500,0.479600,0.478200,0.478200,0.478200,0.478200,0.479500,0.480400,0.480500,0.480500,0.479100,0.477900,0.476400,0.476300,0.476200,1.000000,1.000000,1.000000,0.380000,1.000000,1.000000,1.000000,1.000000,1.000000,1.000000,1.000000,1.000000,1.000000,1.000000,1.000000,1.000000,1.000000,1.000000,0.374700,0.380900,0.381000,0.377600,0.375000,1.000000,1.000000
1.000000,1.000000,1.000000,1.000000,1.000000,1.000000,1.000000,1.000000,1.000000,1.000000,1.000000,1.000000,1.000000,1.000000,1.000000,1.000000,1.000000,1.000000,1.000000,1.000000,1.000000,1.000000,1.000000,1.000000,1.000000,1.000000,1.000000,1.000000,1.000000,1.000000,1.000000,1.000000,1.000000,1.000000,1.000000,1.000000,1.000000,1.000000,1.000000,0.546200,0.546200,0.546100,1.000000,1.000000,1.000000,0.544600,0.543300,0.542800,0.542700,0.542700,0.542700,0.542700,0.542700,0.542900,0.543200,0.543200,0.543100,0.541200,0.541100,0.541000,0.540800,0.540800,0.540700,0.542000,0.541900,0.541800,0.541600,0.541500,0.541400,0.541400,0.541400,0.540000,0.539900,0.539900,0.539800,0.539800,0.539700,0.539400,0.538400,0.538300,0.538200,0.538200,0.537900,0.536800,0.536800,0.536800,0.536800,0.538000,0.536400,0.536300,0.536400,0.536700,0.537000,0.537200,0.537400,0.537400,0.537100,0.535600,0.535400,0.535400,0.535300,0.535100,0.534200,0.534200,0.534900,0.535300,0.535500,0.535500,1.000000,1.000000,0.493600,0.492700,1.000000,0.290900,0.290100,0.290000,0.290000,0.289800,0.289600,0.289300,0.289200,0.289100,0.289000,0.289000,0.289000,0.289000,0.288900,0.288900,0.288500,0.288400,0.288400,0.288300,0.288300,0.288200,0.288000,0.287900,0.287500,0.287400,0.287300,0.287300,0.287200,0.287100,0.287000,0.286900,0.286700,0.286600,0.286500,0.286400,0.286300,0.286300,0.286200,0.286300,0.286200,0.286200,0.285700,0.285600,0.285500,0.285500,0.285500,0.285500,0.285400,0.285400,0.285200,0.285100,0.284900,0.284700,0.284600,0.284400,0.284400,0.284200,0.284000,0.283900,0.283800,0.283800,0.283800,0.283800,0.283800,0.283700,0.283600,0.283600,0.283600,0.283600,0.283600,0.282600,0.282500,0.282500,0.282700,0.282700,0.282800,0.282800,0.282700,0.282500,0.282400,0.282400,0.282300,0.281600,0.281600,0.281400,0.281400,0.281300,0.281100,0.281100,0.280900,0.280800,0.280800,0.280700,0.280600,1.000000,1.000000,1.000000,1.000000,1.000000,1.000000,0.479400,0.479400,0.479500,0.479600,0.479700,0.479700,0.479700,0.478200,0.478200,0.480400,0.480400,0.480400,0.480500,0.479200,0.477900,0.476700,0.476300,0.476100,1.000000,1.000000,1.000000,0.380100,0.380000,0.380000,1.000000,1.000000,1.000000,1.000000,1.000000,1.000000,1.000000,1.000000,1.000000,1.000000,1.000000,0.374400,0.375000,0.375300,0.375300,1.000000,1.000000,1.000000,1.000000
1.000000,1.000000,1.000000,1.000000,1.000000,1.000000,1.000000,1.000000,1.000000,1.000000,1.000000,1.000000,1.000000,1.000000,1.000000,1.000000,1.000000,1.000000,1.000000,1.000000,1.000000,1.000000,1.000000,1.000000,1.000000,1.000000,1.000000,1.000000,1.000000,1.000000,1.000000,1.000000,1.000000,1.000000,1.000000,1.000000,1.000000,1.000000,1.000000,0.546300,0.548300,0.548400,1.000000,1.000000,0.545500,0.544600,0.543900,0.542800,0.542700,0.542700,0.542700,0.542700,0.542800,0.543100,0.543200,0.543200,0.543100,0.541500,0.541300,0.541100,0.542000,1.000000,1.000000,0.541900,0.541800,0.541600,0.541500,0.541400,0.541400,0.541300,0.541300,0.540000,0.539900,0.539900,0.539800,0.539700,0.539700,0.539600,0.538300,0.538200,0.538200,0.538100,0.536800,0.536700,0.536700,0.536800,0.536800,0.536700,0.536200,0.536200,0.535400,0.535400,0.536600,0.536800,0.537400,0.537400,0.535700,0.535600,0.535500,0.535400,0.535300,0.534100,0.534100,0.534100,0.534800,0.535500,1.000000,1.000000,1.000000,1.000000,0.492600,0.492600,1.000000,0.290900,0.290400,0.290100,0.290000,0.289800,0.289600,0.289300,0.289200,0.289000,0.289000,0.289000,0.288900,0.288900,0.288900,0.288800,0.288400,0.288300,0.288300,0.288300,0.288300,0.288200,0.288100,0.287900,0.287500,0.287400,0.287300,0.287300,0.287200,0.287200,0.287100,0.286900,0.286800,0.286700,0.286500,0.286400,0.286300,0.286300,0.286300,0.286300,0.286300,0.286200,0.285700,0.285600,0.285500,0.285400,0.285500,0.285500,0.285400,0.285300,0.285200,0.285100,0.284800,0.284700,0.284600,0.284400,0.284400,0.284300,0.284200,0.284000,0.283800,0.283800,0.283800,0.283800,0.283700,0.283600,0.283600,0.283500,0.283500,0.283500,0.283500,0.282500,0.282500,0.282500,0.282600,0.282700,0.282800,0.282700,0.282500,0.282300,0.282100,0.282000,0.281700,0.281500,0.281500,0.281400,0.281300,0.281200,0.281100,0.281000,0.280900,0.280800,0.280800,0.280700,0.280600,1.000000,1.000000,1.000000,0.347300,1.000000,1.000000,0.479500,0.479500,0.479500,0.479600,0.479700,0.479800,0.479700,0.478300,0.478300,0.480400,0.480400,0.480400,0.479200,0.479200,0.477800,0.477000,0.476900,1.000000,1.000000,1.000000,0.380200,0.380100,0.380100,0.380000,1.000000,1.000000,1.000000,1.000000,1.000000,1.000000,1.000000,1.000000,1.000000,1.000000,0.374600,0.374600,0.375200,1.000000,0.375300,1.000000,0.375000,0.373200,1.000000
1.000000,1.000000,1.000000,1.000000,1.000000,1.000000,1.000000,1.000000,1.000000,1.000000,1.000000,1.000000,1.000000,1.000000,1.000000,1.000000,1.000000,1.000000,1.000000,1.000000,1.000000,1.000000,1.000000,1.000000,1.000000,1.000000,1.000000,1.000000,1.000000,1.000000,1.000000,1.000000,1.000000,1.000000,1.000000,1.000000,1.000000,1.000000,1.000000,0.546500,0.548300,0.548400,1.000000,1.000000,1.000000,0.545400,0.543900,0.543800,0.543900,0.543800,0.542800,0.542900,0.543100,0.543300,0.543300,0.543200,0.543100,0.542100,1.000000,1.000000,0.542000,1.000000,1.000000,0.541800,0.541400,0.541400,0.541400,0.541400,0.541400,0.541300,0.541300,0.539900,0.539800,0.539800,0.539700,0.539600,0.539600,0.538300,0.538300,0.538200,0.538200,0.538000,0.536700,0.536700,0.536700,0.536700,0.536800,0.536800,0.536100,0.534800,0.534900,0.535000,0.535400,0.536000,0.536000,0.535900,0.535800,0.535700,0.535500,0.535400,0.535300,0.534000,0.534000,0.534000,0.534100,0.535400,1.000000,1.000000,1.000000,1.000000,0.492600,1.000000,1.000000,0.290800,0.290600,0.290100,0.290000,0.289700,0.289500,0.289300,0.289200,0.289000,0.288900,0.288900,0.288800,0.288900,0.288800,0.288700,0.288400,0.288300,0.288300,0.288300,0.288400,0.288400,0.288400,0.288400,0.288400,0.288300,0.287400,0.287300,0.287300,0.287200,0.287200,0.287000,0.286900,0.286700,0.286400,0.286400,0.286300,0.286300,0.286300,0.286300,0.286300,0.286300,0.285800,0.285500,0.285400,0.285200,0.285100,0.285000,0.285200,0.285200,0.285100,0.285000,0.284800,0.284700,0.284600,0.284500,0.284500,0.284400,0.284300,0.284000,0.283900,0.283900,0.283800,0.283800,0.283700,0.283500,0.283400,0.283300,0.283300,0.283200,0.282400,0.282400,0.282400,0.282400,0.282600,0.282700,0.282700,0.282600,0.282400,0.282200,0.282000,0.281800,0.281700,0.281400,0.281400,0.281300,0.281200,0.281100,0.281000,0.281000,0.280900,0.280800,0.280800,0.280600,1.000000,1.000000,1.000000,1.000000,0.347000,0.347000,1.000000,0.479600,0.479600,0.479600,0.479700,0.480700,0.480800,0.479000,0.478300,0.478200,0.478100,0.478900,0.478600,0.477600,0.477500,0.477400,0.477200,0.477100,0.476000,1.000000,1.000000,0.381100,0.380300,0.380100,0.379800,1.000000,1.000000,1.000000,1.000000,1.000000,1.000000,1.000000,1.000000,1.000000,1.000000,1.000000,0.375200,0.375300,0.375400,1.000000,0.377200,1.000000,0.374800,1.000000
1.000000,1.000000,1.000000,1.000000,1.000000,1.000000,1.000000,1.000000,1.000000,1.000000,1.000000,1.000000,1.000000,1.000000,1.000000,1.000000,1.000000,1.000000,1.000000,1.000000,1.000000,1.000000,1.000000,1.000000,1.000000,1.000000,1.000000,1.000000,1.000000,1.000000,1.000000,1.000000,1.000000,1.000000,1.000000,1.000000,1.000000,1.000000,1.000000,0.546700,0.547100,0.547300,1.000000,1.000000,1.000000,1.000000,0.545300,0.544000,0.543900,0.543900,0.543300,0.543000,0.543100,0.543300,0.543400,0.543300,0.543200,0.543000,1.000000,1.000000,0.543100,0.543200,0.541400,0.541000,0.540800,0.540700,0.541000,0.541400,0.541300,0.541200,0.541100,1.000000,0.539700,0.539600,0.539600,0.538800,0.538400,0.538400,0.538300,0.538300,0.538200,0.537900,0.536700,0.536600,0.536600,0.536700,0.536800,0.537000,0.536100,0.534900,0.535000,0.535000,0.535300,0.535600,0.535900,0.535900,0.535800,0.535800,0.535600,0.535500,0.535400,0.534000,0.534000,0.534000,1.000000,1.000000,1.000000,1.000000,1.000000,1.000000,0.492600,1.000000,1.000000,0.290800,0.290200,0.290000,0.289900,0.289200,0.289100,0.289100,0.289000,0.288600,0.288600,0.288500,0.288400,0.288400,0.288400,0.288400,0.288400,0.288300,0.288300,0.288400,0.288400,0.288400,0.288400,0.288400,0.288300,0.288300,0.288100,0.287400,0.287400,0.287300,0.287200,0.287000,0.286900,0.286600,0.286400,0.286300,0.286300,0.286300,0.286300,0.286300,0.286300,0.286300,0.286200,0.286000,0.285400,0.285000,0.285000,0.285000,0.285100,0.285100,0.285100,0.285000,0.284800,0.284700,0.284600,0.284500,0.284500,0.284400,0.284300,0.284200,0.284000,0.284000,0.283900,0.283900,0.283700,0.283500,0.283400,0.283200,0.283100,0.282600,0.282400,0.282400,0.282200,0.282200,0.282200,0.282400,0.282600,0.282500,0.282300,0.282100,0.281800,0.281700,0.281500,0.281400,0.281300,0.280400,0.280300,0.280400,0.280600,0.280900,0.280800,0.280800,0.280700,0.280600,1.000000,1.000000,1.000000,1.000000,0.347000,0.347000,1.000000,0.479800,0.479800,0.479800,0.479800,1.000000,0.480200,0.479000,0.478800,0.478200,0.478100,0.477700,0.477600,0.477500,0.477400,0.477400,0.477200,0.477200,1.000000,1.000000,1.000000,0.385200,0.381100,0.378000,0.377500,0.377500,1.000000,1.000000,1.000000,1.000000,1.000000,1.000000,1.000000,1.000000,1.000000,1.000000,1.000000,1.000000,1.000000,1.000000,1.000000,1.000000,1.000000,1.000000
1.000000,1.000000,1.000000,1.000000,1.000000,1.000000,1.000000,1.000000,1.000000,1.000000,1.000000,1.000000,1.000000,1.000000,1.000000,1.000000,1.000000,1.000000,1.000000,1.000000,1.000000,1.000000,1.000000,1.000000,1.000000,1.000000,1.000000,1.000000,1.000000,1.000000,1.000000,1.000000,1.000000,1.000000,1.000000,1.000000,1.000000,1.000000,1.000000,1.000000,0.546600,0.545300,0.546300,0.546300,0.546300,0.546400,1.000000,0.546400,1.000000,1.000000,1.000000,0.543000,0.543000,0.543300,0.543400,0.543500,0.543500,0.543400,1.000000,1.000000,0.543100,0.543100,0.543100,0.540900,0.540700,0.540600,0.540500,0.540400,0.540500,0.541000,0.541000,0.540900,0.539600,0.539600,0.539600,0.539200,0.538500,0.538400,0.538400,0.539400,0.538400,0.538300,0.536700,0.536600,0.536400,0.536400,0.537000,0.537100,0.537200,0.536100,0.535100,0.535200,0.535400,0.535500,0.535700,0.535800,0.535800,0.535800,0.535600,0.535500,0.535400,0.534000,0.534000,1.000000,1.000000,1.000000,1.000000,1.000000,1.000000,1.000000,0.492600,1.000000,0.292200,0.290100,0.290000,0.289900,0.289200,0.289100,0.289000,0.289000,0.288700,0.288400,0.288400,0.288400,0.288300,0.288300,0.288400,0.288400,0.288400,0.288400,0.288400,0.288400,0.288400,0.288400,0.288400,0.288400,0.288300,0.288200,0.288000,0.287900,0.287700,0.287400,0.287300,0.287000,0.286800,0.286500,0.286300,0.286300,0.286200,0.286200,0.286300,0.286300,0.286300,0.286300,0.286200,0.286100,0.285400,0.284900,0.284900,0.284900,0.285000,0.285000,0.285000,0.284900,0.284700,0.284600,0.284600,0.284500,0.284400,0.284300,0.284200,0.284200,0.284000,0.284000,0.284000,0.283900,0.283700,0.283400,0.283300,0.283000,0.282800,0.282500,0.282400,0.282300,0.282100,0.282100,0.282000,0.282000,0.282500,0.282400,0.282200,0.282000,0.281700,0.281600,0.281500,0.281300,0.281300,0.280300,0.280300,0.280300,0.280300,0.280800,0.280800,0.280800,0.280700,0.280600,0.280600,0.280600,1.000000,1.000000,0.345900,0.345900,0.346800,0.480000,0.480000,0.480000,0.480200,0.480300,0.479000,0.479000,0.478900,0.478200,0.478000,0.477700,0.477500,0.477500,0.477400,0.477300,0.477200,1.000000,1.000000,1.000000,1.000000,0.393200,0.388400,0.377900,0.377600,0.377600,1.000000,1.000000,1.000000,1.000000,1.000000,1.000000,1.000000,1.000000,1.000000,1.000000,1.000000,1.000000,1.000000,1.000000,1.000000,1.000000,1.000000,1.000000
1.000000,1.000000,1.000000,1.000000,1.000000,1.000000,1.000000,1.000000,1.000000,1.000000,1.000000,1.000000,1.000000,1.000000,1.000000,1.000000,1.000000,1.000000,1.000000,1.000000,1.000000,1.000000,1.000000,1.000000,1.000000,1.000000,1.000000,1.000000,1.000000,1.000000,1.000000,1.000000,1.000000,1.000000,1.000000,1.000000,1.000000,1.000000,1.000000,1.000000,0.544300,0.544300,0.546300,0.546300,0.546300,0.546300,0.546400,1.000000,0.545300,0.542800,0.542800,0.542800,0.542800,0.542900,0.542900,0.542700,0.542700,0.541800,1.000000,0.541200,0.542700,0.543000,0.543000,0.543000,0.540500,0.540500,0.540400,0.540400,0.540400,0.540500,0.540500,0.539900,0.538700,1.000000,0.539700,0.539700,0.538700,0.538700,0.539400,0.539400,0.539400,0.538400,0.536800,0.536700,0.536300,0.536200,0.537200,0.537200,0.537200,0.537200,0.535300,0.535300,0.535400,0.535400,0.535600,0.535600,0.535800,0.535800,0.535700,0.535600,0.534100,0.534000,0.534000,1.000000,1.000000,1.000000,1.000000,1.000000,1.000000,1.000000,0.493900,1.000000,0.292200,0.290000,0.289900,0.289800,0.289200,0.289000,0.288900,0.288700,0.288400,0.288400,0.288200,0.288200,0.288200,0.288200,0.288300,0.288400,0.288400,0.288400,0.288400,0.288300,0.288200,0.288200,0.288000,0.287600,0.287300,0.287600,0.287800,0.287800,0.287700,0.287400,0.287300,0.286500,0.286300,0.286300,0.286200,0.286200,0.286200,0.286200,0.286300,0.286300,0.286300,0.286300,0.286200,0.286200,0.285000,0.284900,0.284900,0.284900,0.285000,0.285000,0.284900,0.284900,0.284700,0.284600,0.284500,0.284400,0.284400,0.284300,0.284200,0.284200,0.284000,0.284000,0.283900,0.283800,0.283600,0.283400,0.283200,0.283000,0.282800,0.282500,0.282300,0.282200,0.282000,0.281900,0.281800,0.281800,0.282000,0.282100,0.282000,0.281800,0.281600,0.281500,0.281400,0.281100,0.280600,0.280300,0.280200,0.280200,0.280100,0.280100,0.280000,0.279900,0.279900,0.280000,0.280400,0.280400,1.000000,1.000000,0.345900,1.000000,1.000000,0.480100,0.480100,0.480200,0.480200,1.000000,0.479000,0.479000,0.480100,1.000000,0.477700,0.477600,1.000000,1.000000,1.000000,1.000000,1.000000,1.000000,1.000000,1.000000,1.000000,0.393200,0.393200,0.379400,0.377500,0.377500,1.000000,1.000000,1.000000,1.000000,1.000000,1.000000,1.000000,1.000000,1.000000,1.000000,1.000000,1.000000,1.000000,1.000000,1.000000,1.000000,1.000000,1.000000
1.000000,1.000000,1.000000,1.000000,1.000000,1.000000,1.000000,1.000000,1.000000,1.000000,1.000000,1.000000,1.000000,1.000000,1.000000,1.000000,1.000000,1.000000,1.000000,1.000000,1.000000,1.000000,1.000000,1.000000,1.000000,1.000000,1.000000,1.000000,1.000000,1.000000,1.000000,1.000000,1.000000,1.000000,1.000000,1.000000,1.000000,1.000000,1.000000,1.000000,0.544400,0.544200,0.544200,0.545800,0.546200,0.546200,0.546300,0.546300,0.545400,0.543500,0.542800,0.542700,0.542700,0.542800,0.542800,0.542700,0.542300,0.541700,1.000000,0.541200,0.541300,1.000000,1.000000,1.000000,0.540500,1.000000,0.540400,0.540400,0.540400,0.540400,0.540400,1.000000,0.538700,0.539800,0.539900,0.539900,0.539800,0.539600,0.539500,0.539400,0.538300,0.537000,0.536800,0.536800,0.535900,0.535900,0.535900,0.537200,0.537200,0.536200,0.535400,0.535400,0.535400,0.535400,0.535500,0.535600,0.535600,0.535600,0.535200,0.534200,0.534100,0.534000,0.533900,1.000000,1.000000,1.000000,1.000000,1.000000,1.000000,1.000000,0.492100,1.000000,0.289900,0.289800,0.289800,0.289600,0.289300,0.289000,0.288800,0.288700,0.288400,0.288300,0.288200,0.288100,0.288100,0.288200,0.288300,0.288500,0.288600,0.288500,0.288400,0.288200,0.288100,0.287900,0.287600,0.287400,0.287200,0.287200,0.287600,0.287700,0.287700,0.287400,0.287200,0.286400,0.286300,0.286300,0.286200,0.286100,0.286100,0.286100,0.286200,0.286200,0.286200,0.286100,0.286100,0.286000,0.285000,0.285000,0.285000,0.285000,0.285000,0.285000,0.284900,0.284800,0.284600,0.284500,0.284400,0.284400,0.284300,0.284300,0.284200,0.284100,0.284000,0.283900,0.283800,0.283700,0.283400,0.283300,0.283200,0.282900,0.282800,0.282500,0.282400,0.282100,0.281900,0.281800,0.281800,0.281800,0.281900,0.281900,0.281800,0.281700,0.281500,0.281400,0.281300,0.280900,0.280700,0.280300,0.280200,0.280200,0.280100,0.280100,0.280000,0.279900,0.279900,0.280000,0.280200,0.280300,1.000000,1.000000,0.345800,0.345700,1.000000,1.000000,0.480200,0.480200,0.480100,0.480100,1.000000,0.480100,0.480000,1.000000,1.000000,1.000000,1.000000,1.000000,1.000000,1.000000,1.000000,1.000000,1.000000,1.000000,1.000000,0.393200,0.393200,1.000000,0.383500,1.000000,1.000000,1.000000,1.000000,1.000000,1.000000,1.000000,1.000000,1.000000,1.000000,1.000000,1.000000,1.000000,1.000000,1.000000,1.000000,1.000000,1.000000,1.000000
1.000000,1.000000,1.000000,1.000000,1.000000,1.000000,1.000000,1.000000,1.000000,1.000000,1.000000,1.000000,1.000000,1.000000,1.000000,1.000000,1.000000,1.000000,1.000000,1.000000,1.000000,1.000000,1.000000,1.000000,1.000000,1.000000,1.000000,1.000000,1.000000,1.000000,1.000000,1.000000,1.000000,1.000000,1.000000,1.000000,1.000000,1.000000,1.000000,0.544800,0.544400,0.544200,0.544100,0.544000,0.545900,0.546200,0.546200,0.546300,0.545400,0.543600,0.542900,0.542600,0.542600,0.542800,0.542800,0.542400,0.541800,0.539200,1.000000,0.539200,0.541500,0.542800,0.542900,0.540400,0.540400,0.540400,0.540400,0.540400,0.540400,0.540400,0.540400,1.000000,1.000000,0.540000,0.540000,0.539900,0.539800,0.539600,0.539500,0.538200,0.537400,0.537200,0.536900,0.536900,0.535800,0.535800,0.535900,0.536000,0.537200,0.535300,0.535400,0.535400,0.535400,0.535500,0.535500,0.535500,0.535500,0.535300,0.534200,0.534100,0.532900,0.532900,1.000000,1.000000,1.000000,1.000000,1.000000,1.000000,1.000000,1.000000,0.492100,1.000000,0.289800,0.289800,0.289700,0.289500,0.289300,0.288900,0.288800,0.288700,0.288500,0.288400,0.288200,0.288100,0.288100,0.288100,0.288300,0.288600,0.288600,0.288500,0.288400,0.288100,0.288000,0.287700,0.287500,0.287300,0.287200,0.287100,0.287000,0.287600,0.287600,0.287200,0.286800,0.286400,0.286300,0.286200,0.286100,0.286100,0.286000,0.286000,0.286000,0.286100,0.286100,0.286000,0.286000,0.285900,0.285200,0.285100,0.285000,0.285000,0.285000,0.285000,0.284800,0.284700,0.284500,0.284400,0.284400,0.284400,0.284300,0.284200,0.284200,0.284100,0.283900,0.283800,0.283700,0.283600,0.283400,0.283300,0.283100,0.282800,0.282800,0.282600,0.282400,0.282100,0.281900,0.281800,0.281800,0.281800,0.281800,0.281800,0.281800,0.281700,0.281500,0.281400,0.281300,0.281000,0.280800,0.280400,0.280200,0.280200,0.280100,0.280000,0.280000,0.280000,0.280000,0.280000,0.280100,0.280200,1.000000,1.000000,0.345700,0.345700,1.000000,1.000000,1.000000,0.480100,0.480100,0.480100,1.000000,0.480100,0.479300,1.000000,1.000000,1.000000,1.000000,1.000000,1.000000,1.000000,0.481100,1.000000,1.000000,1.000000,1.000000,1.000000,1.000000,1.000000,1.000000,1.000000,1.000000,1.000000,1.000000,1.000000,1.000000,1.000000,1.000000,1.000000,1.000000,1.000000,1.000000,1.000000,1.000000,1.000000,1.000000,1.000000,1.000000,1.000000
1.000000,1.000000,1.000000,1.000000,1.000000,1.000000,1.000000,1.000000,1.000000,1.000000,1.000000,1.000000,1.000000,1.000000,1.000000,1.000000,1.000000,1.000000,1.000000,1.000000,1.000000,1.000000,1.000000,1.000000,1.000000,1.000000,1.000000,1.000000,1.000000,1.000000,1.000000,1.000000,1.000000,1.000000,1.000000,1.000000,1.000000,1.000000,0.545400,0.545700,0.545800,0.544600,0.544000,0.544000,0.543900,0.543900,0.546200,0.546300,0.545400,0.543500,0.543400,0.542700,0.542700,0.542700,0.542800,0.541500,0.540800,0.540800,1.000000,0.541600,0.541600,0.541600,1.000000,1.000000,0.540400,0.540400,0.540400,0.540400,0.539000,0.538800,0.538800,0.538800,0.538600,0.538600,0.538600,0.538700,0.539600,0.539600,0.538100,0.537800,1.000000,0.537500,0.537300,0.537200,0.535700,0.535800,0.535900,0.535900,0.536100,0.535300,0.535300,0.535300,0.535500,0.535500,0.535600,0.535500,0.535400,0.535200,0.532900,0.532900,0.532900,1.000000,1.000000,1.000000,1.000000,1.000000,1.000000,1.000000,1.000000,1.000000,1.000000,1.000000,0.289700,0.289700,0.289600,0.289400,0.289100,0.288900,0.288800,0.288700,0.288600,0.288400,0.288300,0.288200,0.288100,0.288100,0.288200,0.288400,0.288500,0.288400,0.288400,0.287800,0.287700,0.287500,0.287400,0.287200,0.287000,0.286900,0.286700,0.286700,0.286700,0.286700,0.286600,0.286400,0.286300,0.286200,0.286000,0.286000,0.285900,0.285900,0.285900,0.285900,0.285900,0.285900,0.285900,0.285800,0.285500,0.285400,0.285300,0.285300,0.285200,0.285200,0.284800,0.284600,0.284500,0.284400,0.284400,0.284300,0.284300,0.284200,0.284200,0.284100,0.283800,0.283800,0.283600,0.283500,0.283300,0.283200,0.283000,0.282800,0.282800,0.282600,0.282500,0.282200,0.281900,0.281900,0.281800,0.281800,0.281800,0.281700,0.281700,0.281600,0.281500,0.281400,0.281300,0.281000,0.281000,0.280900,0.280300,0.280200,0.280100,0.280100,0.280000,0.280000,0.280000,0.280000,0.280100,0.280100,1.000000,1.000000,0.345600,1.000000,1.000000,1.000000,1.000000,1.000000,1.000000,1.000000,1.000000,0.480000,0.479300,1.000000,1.000000,1.000000,1.000000,1.000000,0.479400,0.481200,0.482800,1.000000,1.000000,1.000000,1.000000,1.000000,1.000000,1.000000,1.000000,1.000000,1.000000,1.000000,1.000000,1.000000,1.000000,1.000000,1.000000,1.000000,1.000000,1.000000,1.000000,1.000000,1.000000,1.000000,1.000000,1.000000,1.000000,1.000000
1.000000,1.000000,1.000000,1.000000,1.000000,1.000000,1.000000,1.000000,1.000000,1.000000,1.000000,1.000000,1.000000,1.000000,1.000000,1.000000,1.000000,1.000000,1.000000,1.000000,1.000000,1.000000,1.000000,1.000000,1.000000,1.000000,1.000000,1.000000,1.000000,1.000000,1.000000,1.000000,1.000000,1.000000,1.000000,1.000000,1.000000,1.000000,0.545600,0.545600,0.545700,0.544800,0.543800,0.543300,0.542600,0.542200,0.542100,0.545400,0.543600,0.543500,0.543400,0.543300,1.000000,0.542800,0.542800,1.000000,0.541000,1.000000,0.541700,0.541600,0.541600,1.000000,1.000000,1.000000,0.539200,0.539200,0.540400,0.539000,0.539000,0.538900,0.538900,0.540100,0.538500,0.538400,0.536100,0.536100,0.536800,0.538100,0.538000,0.537800,0.537700,1.000000,0.537400,0.535600,0.534500,0.534600,0.534600,1.000000,1.000000,1.000000,0.535300,0.535300,1.000000,0.535600,0.535600,0.535500,0.535300,1.000000,0.532900,0.532900,0.532800,0.532900,1.000000,1.000000,1.000000,1.000000,1.000000,1.000000,1.000000,1.000000,0.495600,1.000000,1.000000,0.289600,0.289500,0.289200,0.288900,0.288800,0.288800,0.288800,0.288700,0.288600,0.288500,0.288400,0.288300,0.288200,0.288200,0.288300,0.288300,0.288300,0.288100,0.287600,0.287600,0.287400,0.287300,0.287200,0.286900,0.286800,0.286700,0.286700,0.286700,0.286600,0.286600,0.286400,0.286400,0.286200,0.286000,0.285900,0.285800,0.285800,0.285700,0.285700,0.285700,0.285700,0.285700,0.285600,0.285500,0.285400,0.285400,0.285300,0.285300,0.285200,0.284700,0.284500,0.284400,0.284400,0.284400,0.284300,0.284200,0.284100,0.284000,0.284000,0.283700,0.283600,0.283400,0.283400,0.283100,0.283000,0.282900,0.282800,0.282700,0.282600,0.282500,0.282400,0.282100,0.282000,0.281800,0.281800,0.281800,0.281700,0.281700,0.281600,0.281600,0.281500,0.281400,0.281200,0.281100,0.281100,0.281100,0.281100,0.281100,0.281100,0.280400,0.280200,0.280300,0.280100,0.280200,0.280200,1.000000,1.000000,0.345600,0.345600,1.000000,1.000000,1.000000,1.000000,1.000000,1.000000,1.000000,1.000000,1.000000,1.000000,1.000000,1.000000,1.000000,1.000000,0.479400,0.479500,0.479600,1.000000,1.000000,1.000000,1.000000,1.000000,1.000000,1.000000,1.000000,1.000000,1.000000,1.000000,1.000000,1.000000,1.000000,1.000000,1.000000,1.000000,1.000000,1.000000,1.000000,1.000000,1.000000,1.000000,1.000000,1.000000,1.000000,1.000000
