0.085700,0.087300,0.086800,0.086600,0.086600,0.086600,0.086600,0.086600,0.086600,0.086600,0.086800,0.086800,0.086800,0.086700,0.086600,0.086700,0.087400,1.000000,0.232600,0.234500,0.234500,0.235400,0.235400,0.235400,0.233100,0.233100,0.233200,0.233200,0.234000,0.234300,0.234600,0.234400,0.234400,0.234400,0.234400,0.234500,0.234600,0.233600,0.231800,0.231800,0.232100,0.232400,0.232600,0.232600,0.232700,0.232600,0.232400,0.232100,0.231900,0.230700,0.230600,0.230600,0.230600,0.230700,0.230800,0.231200,0.231300,0.230100,0.230100,0.230100,0.230000,0.227900,0.227300,0.227300,0.229500,0.229600,0.229700,0.229600,0.229600,0.225300,0.224000,0.224100,0.224100,0.225300,0.226100,0.226100,0.227100,0.227200,0.227300,0.227200,0.227200,0.227100,0.224800,0.224900,0.225000,0.225600,0.225800,0.225900,0.227700,0.227700,0.227700,0.226900,0.226900,0.227000,0.227600,0.227600,0.227500,0.227600,0.226800,0.226500,0.225700,0.225800,0.225800,0.225800,0.226000,0.226100,0.226200,0.226200,0.226300,0.226200,0.226200,0.226300,0.226300,0.226400,0.226600,0.226600,0.225300,0.223800,0.223600,0.223600,0.223800,0.224700,0.224400,0.224700,0.224800,0.223000,0.223000,0.223000,0.224100,0.224100,0.224200,0.224200,0.224300,0.224400,0.224500,0.225500,0.225600,0.225600,0.225600,0.225600,0.225800,0.226200,0.226200,0.225900,0.225600,0.224900,0.224700,0.224500,0.224100,0.223100,0.223100,0.223200,0.223600,0.223400,0.223100,0.222100,0.221600,0.221400,0.220100,1.000000,1.000000,1.000000,1.000000,0.219900,0.220900,0.220900,0.220800,0.220800,0.220400,0.220300,0.220200,0.220100,0.220000,0.220000,0.219800,0.219700,0.219400,0.219300,0.219200,0.218900,0.218800,0.218100,0.218000,0.218000,0.217800,0.217800,0.217200,0.217100,0.217000,0.216000,0.215900,0.215800,0.215700,0.215600,0.215600,0.215600,0.215500,0.215400,0.215400,0.215200,0.215200,0.215000,0.214800,0.214700,0.214400,0.214300,0.213800,0.213600,0.212700,0.212200,0.212100,0.212000,0.212000,0.212000,1.000000,1.000000,1.000000,0.210900,0.211200,0.211200,0.211100,0.210800,0.210500,0.210300,0.210000,0.209800,0.209700,0.209400,0.209300,0.209000,0.209000,0.208800,0.208600,0.208500,0.208100,0.208000,0.207800,0.207700,0.207500,0.207000,0.206900,0.206800,0.206700,0.206500,0.206400,0.206200,0.206000,0.205800,0.205400,0.205300,0.205100,0.205000,0.204800,0.204500,0.204400,0.204300
0.087400,0.087400,0.087200,0.086700,0.086600,0.086600,0.086600,0.086600,0.086600,0.086600,0.086600,0.086600,0.086600,0.086600,0.086600,0.086600,0.086600,1.000000,0.231000,0.232100,0.230200,0.230300,0.231800,0.231800,0.231800,0.231800,0.231800,0.231800,0.232100,0.232400,0.234300,0.234300,0.232900,0.232800,0.232600,0.232400,0.232100,0.229700,0.229800,0.229900,0.230000,0.230100,0.230200,0.230200,0.230800,0.230900,0.230900,0.230900,0.230800,0.230700,0.230600,0.229700,0.229700,0.229600,0.229500,0.231200,0.229200,0.226800,0.226600,0.226600,0.226600,0.225600,0.225500,0.225400,0.227300,0.228100,0.228000,0.227200,0.227200,0.223900,0.223900,0.224100,0.224100,0.225200,0.225300,0.225400,0.225700,0.225800,0.226000,0.226000,0.226000,0.224200,0.222600,0.222600,0.222600,0.224100,0.224300,0.224500,0.224800,0.225100,0.225200,0.225200,0.225100,0.225100,0.225900,0.226400,0.226500,0.226500,0.226400,0.225300,0.224100,0.224100,0.224100,0.224200,0.224400,0.224400,0.224500,0.224500,0.224500,0.224500,0.224500,0.224600,0.224800,0.224900,0.225200,0.225200,0.224000,0.223200,0.223200,0.223200,0.223200,0.223900,0.223600,0.223500,0.223300,0.223000,0.223000,0.222900,0.222900,0.224000,0.224200,0.224200,0.223800,0.223700,0.223600,0.223700,0.225500,0.225600,0.224200,0.224200,0.224200,0.224200,0.224400,0.224500,0.224700,0.224600,0.224400,0.224200,0.223100,0.223100,0.223100,0.223200,0.223200,0.223200,0.222000,0.221900,0.221600,0.221500,1.000000,1.000000,1.000000,1.000000,1.000000,0.219800,0.220400,0.220700,0.220800,0.220700,0.220300,0.220200,0.220100,0.220000,0.220000,0.220000,0.218500,0.218500,0.218700,0.219200,0.219100,0.218900,0.218400,0.218100,0.218000,0.218000,0.217800,0.217700,0.217300,0.217100,0.217000,0.216000,0.215900,0.215700,0.215700,0.215600,0.215600,0.215500,0.215500,0.215500,0.215400,0.215300,0.215200,0.215000,0.214900,0.214700,0.214400,0.214300,0.213900,0.213700,0.213500,0.212300,0.212100,0.212000,0.212000,0.211900,0.211900,0.211800,1.000000,0.210900,0.211200,0.211200,0.211000,0.210700,0.210500,0.210400,0.210100,0.209900,0.209700,0.209400,0.209200,0.209000,0.208900,0.208800,0.208600,0.208500,0.208200,0.208000,0.207900,0.207600,0.207400,0.207100,0.207000,0.206900,0.206700,0.206700,0.206400,0.206200,0.206000,0.205800,0.205400,0.205300,0.205100,0.205000,0.204800,0.204500,0.204400,0.204300
0.088500,0.088500,0.087100,0.086700,0.086600,0.086500,0.086500,0.086600,0.086600,0.086600,0.086600,0.086500,0.086500,0.086400,0.086400,0.086500,0.086500,0.227000,1.000000,0.226900,0.226600,0.226500,1.000000,0.228000,0.229100,0.229100,0.230000,0.230000,0.230100,0.230200,0.231600,0.231600,0.231600,0.231500,0.228400,0.228400,0.228500,0.228600,0.228600,0.228700,0.227600,0.226600,0.226300,0.226200,0.226300,0.226500,0.227500,0.227700,0.227800,0.227800,0.227800,0.226600,0.226600,0.226600,0.226800,0.226900,0.226900,0.225400,0.224600,0.224600,0.224300,0.224000,0.223700,0.223300,0.225200,0.225100,0.225000,0.225000,0.225000,0.223100,0.222900,0.222900,0.224000,0.224200,0.224300,0.224500,0.224500,0.224500,0.224500,0.224300,0.223600,0.222500,0.221500,0.221600,0.222600,0.223800,0.223900,0.223700,0.223700,0.223600,0.223500,0.223400,0.223400,0.221500,0.222200,0.222400,0.222500,0.222700,0.222700,0.222500,0.222100,0.222100,0.222100,0.222000,0.222100,0.220200,0.220000,0.219900,0.219800,0.219800,0.219900,0.220200,0.220200,0.220200,0.220300,0.220300,0.220200,0.220200,0.220400,0.220900,0.221000,0.221000,0.221900,0.221900,0.221900,0.221900,0.222900,0.222900,0.222800,0.222600,0.222200,0.222200,0.222000,0.222000,0.222000,0.222700,0.224200,0.224200,0.223000,0.223000,0.223100,0.223100,0.224000,0.224000,0.224200,0.224300,0.224000,0.223400,0.222300,0.222600,0.222600,0.223100,0.223200,0.222000,0.221900,0.221800,0.220200,0.220200,1.000000,1.000000,1.000000,1.000000,0.217000,0.217000,0.219600,0.220000,0.220400,0.220100,0.219900,0.219900,0.220000,0.220000,0.219800,0.218400,0.217000,0.217000,0.217100,0.217100,0.217000,0.217000,0.217000,0.218000,0.218000,0.218000,0.217800,0.217600,0.217300,0.216100,0.216000,0.215900,0.215800,0.215600,0.215600,0.215500,0.215500,0.215500,0.215500,0.215500,0.215400,0.215200,0.215100,0.215000,0.214900,0.214700,0.214500,0.214400,0.213800,0.213500,0.213300,0.212800,0.212100,0.212000,0.211900,0.211900,0.211800,0.211800,1.000000,1.000000,0.211800,0.211300,0.210800,0.210600,0.210400,0.210300,0.210100,0.210000,0.209800,0.209400,0.209200,0.208900,0.208800,0.208700,0.208500,0.208400,0.208200,0.208100,0.207900,0.207700,0.207400,0.207100,0.207000,0.206900,0.206800,0.206800,0.206500,0.206200,0.206100,0.206000,0.205400,0.205300,0.205100,0.205000,0.204800,0.204500,0.204400,0.204200
0.088600,0.088600,0.086800,0.086600,0.086500,0.086400,0.086400,0.086400,0.086500,0.086400,0.086400,0.086300,0.086300,0.086300,0.086400,0.086500,0.086500,1.000000,0.226000,0.226500,0.226300,0.226000,0.226000,0.226000,0.225900,0.227000,0.228100,0.228200,0.228200,0.228100,0.228100,0.228100,0.228100,0.228200,0.227000,0.227100,0.227200,0.228200,0.228300,0.227600,0.227300,0.226300,0.226200,0.224700,0.224700,0.225100,0.225300,0.225600,0.225700,0.225700,0.225800,0.224200,0.224200,0.224200,0.224300,0.224500,0.224500,0.224600,0.224600,0.224500,0.223800,0.222600,0.221000,0.221200,0.221200,0.222600,0.223200,0.223100,0.223100,0.221400,0.221400,0.221400,0.221100,0.221800,0.221600,0.221100,0.220900,0.220800,0.220700,0.220600,0.220500,0.220400,0.220400,0.220400,0.221500,0.222500,0.222500,0.220400,0.220300,0.220100,0.218000,0.216400,0.217500,0.219800,0.219900,0.220000,0.220100,0.220200,0.220600,0.220800,0.220700,0.220600,0.220600,0.220400,0.220300,0.220100,0.220000,0.219900,0.219700,0.219600,0.219000,0.218600,0.218100,0.218000,0.218000,0.217900,0.218600,0.219600,0.220000,0.220200,0.221000,0.221000,0.219900,0.219500,0.219300,0.219200,0.219200,0.220800,0.219400,0.217100,0.217000,0.217600,0.219000,0.219000,0.219800,0.221000,0.222500,0.222700,0.222900,0.222900,0.223000,0.223000,0.223000,0.223900,0.223900,0.223800,0.223300,0.222000,0.221100,0.221000,0.221000,0.220900,0.220600,0.220000,0.220100,0.220100,0.218200,1.000000,1.000000,0.161800,1.000000,1.000000,0.216900,0.217000,0.218300,0.218300,0.219500,0.219500,0.218300,0.218300,0.218300,0.219300,0.219200,0.217100,0.216600,0.216400,0.216500,0.217000,0.217000,0.217000,0.217000,0.217000,0.217000,0.216600,0.216300,0.216200,0.216100,0.216000,0.216000,0.215900,0.215800,0.215600,0.215500,0.215400,0.214900,0.214400,0.214300,0.214300,0.214200,0.213900,0.213900,0.213900,0.213600,0.212300,0.212300,0.212300,0.212800,0.213100,0.212500,0.212300,0.212100,0.212000,0.211900,0.211800,0.211700,0.211700,1.000000,1.000000,1.000000,1.000000,0.210600,0.210500,0.210300,0.210200,0.209800,0.209800,0.209700,0.209500,0.209400,0.208800,0.208700,0.208600,0.208400,0.208400,0.208200,0.208100,0.207900,0.207600,0.207400,0.207100,0.207100,0.207000,0.207000,0.207000,0.207000,0.207000,0.207000,0.206900,0.206100,0.205300,0.205100,0.205000,0.204900,0.204500,0.204300,0.204100
0.088500,0.088500,0.086600,0.086500,0.086400,0.086400,0.086300,0.086300,0.086400,0.086300,0.086300,0.086200,0.086200,0.086200,0.086200,0.086400,0.086400,1.000000,0.225800,0.226200,0.226100,0.226000,0.226000,0.226000,0.225100,0.225000,0.224800,0.224700,0.224300,0.222400,0.222500,0.222800,0.222900,0.222900,0.222900,0.223200,0.223200,0.222900,0.221800,0.219600,0.219700,0.219700,0.222300,0.223500,0.223500,0.223500,0.222800,0.222600,0.222400,0.222300,0.222200,0.220300,0.220200,0.220200,0.220200,0.221600,0.221600,0.221700,0.221800,0.222200,0.222400,0.221000,0.221000,0.221200,0.221200,0.221300,0.221400,0.221400,0.221400,0.221400,0.220700,0.220600,0.220600,0.220600,0.220400,0.219600,0.219500,0.219300,0.219300,0.219300,0.219500,0.219600,0.219700,0.220400,0.220400,0.221600,0.221600,0.218400,0.218400,0.218000,0.216000,0.215500,0.215400,0.216600,0.216700,0.216900,0.216900,0.217000,0.217000,0.213900,0.215800,0.216000,0.216300,0.216300,0.216400,0.216400,0.216500,0.217200,0.218200,0.218300,0.215200,0.215000,0.214800,0.214500,0.214300,0.214300,0.215400,0.217100,0.217300,0.217400,0.217400,0.217500,0.217400,0.216300,0.216300,0.216300,0.216200,0.217300,0.217200,0.215900,0.215000,0.215000,0.216800,0.219000,0.219000,0.219100,0.222200,0.222600,0.222800,0.222800,0.222900,0.222900,0.222900,0.222900,0.223700,0.223500,0.223300,0.221400,0.221000,0.221000,0.221000,0.220900,0.219900,0.220000,0.220000,0.220000,0.215100,1.000000,1.000000,1.000000,1.000000,0.215400,0.215500,0.215500,0.216800,0.217300,0.217400,0.217400,0.217400,0.217200,0.216900,0.216800,0.216800,0.216500,0.216400,0.216300,0.216400,0.216400,0.216600,0.217000,0.217000,0.215800,0.215400,0.215000,0.215000,0.216200,0.216100,0.216000,0.216000,0.215800,0.215700,0.213500,0.213500,0.213800,0.214000,0.214300,0.214200,0.214200,0.213700,0.212200,0.212100,0.212200,0.212300,0.212200,0.212100,0.212200,0.212300,0.212500,0.212300,0.212200,0.212000,0.212000,0.211900,0.211700,0.211600,1.000000,0.211600,1.000000,1.000000,1.000000,0.210500,0.210400,0.210200,0.209800,0.209700,0.209700,0.209600,0.209400,0.209300,0.208600,0.208400,0.208400,0.208200,0.208100,0.207900,0.207400,0.207200,0.207100,0.207100,0.207100,0.207100,0.207000,0.207000,0.207000,0.207000,0.207000,0.207000,0.206800,0.206700,0.205200,0.205100,0.205000,0.204800,0.204400,0.204200,0.204000
0.088400,0.087700,0.086300,0.086300,0.086300,0.086200,0.086200,0.086200,0.086200,0.086100,0.086000,0.085900,0.085900,0.086000,0.086100,0.086200,0.086400,0.223500,0.223500,0.224600,0.224600,0.224400,0.224300,0.223800,0.222200,0.222200,0.222200,0.222200,0.221400,0.221300,0.221200,0.222500,0.222600,0.222700,0.222600,0.222700,0.222500,0.220300,0.218000,0.217700,0.217700,0.217800,0.217900,0.219600,0.221400,0.221400,0.221100,0.221000,0.220800,0.220700,0.220500,0.219400,0.218400,0.218300,0.218300,0.218200,0.218100,0.218000,0.217900,0.219600,0.220800,0.220900,0.219500,0.219500,0.217800,0.217900,0.218100,0.218200,0.220500,0.220600,0.220600,0.218600,0.216400,0.216400,0.216400,0.216500,0.216600,0.216600,0.216600,0.216600,0.216500,0.216600,0.216500,0.218000,0.218600,0.218600,0.215800,0.215800,0.215800,0.215700,0.215300,0.214300,0.214300,0.214400,0.214500,0.214600,0.212500,0.212400,0.212400,0.212400,0.212800,0.215900,0.216000,0.216100,0.216200,0.214700,0.214800,0.214900,0.214900,0.215000,0.213800,0.213900,0.213900,0.213900,0.213400,0.213000,0.212900,0.214500,0.214500,0.214500,0.213800,0.213800,0.213800,0.214000,0.214400,0.214600,0.214800,0.214900,0.215000,0.215000,0.213400,0.212100,0.212100,0.215100,0.218600,0.218600,0.221700,0.221600,0.221400,0.221200,0.222800,0.220900,0.220800,0.220900,0.222400,0.222300,0.221200,0.221000,0.220900,0.220900,0.220800,0.219800,0.219800,0.219800,0.219900,1.000000,0.215000,1.000000,0.162500,0.162500,1.000000,0.213900,0.214300,0.214500,0.216300,0.216600,0.217400,0.217400,0.217300,0.216900,0.216800,0.216700,0.216700,0.216400,0.216300,0.216300,0.216300,0.216400,0.216400,0.215700,0.215700,0.215400,0.214900,0.214900,0.214800,0.214700,0.214500,0.214400,0.214400,0.214200,0.213500,0.213400,0.213300,0.213300,0.212700,0.212300,0.212000,0.211900,0.211900,0.211800,0.211700,0.211500,0.211500,0.211500,0.211600,0.211800,0.212000,0.212200,0.212000,0.210600,0.209400,0.209300,0.209200,0.209200,0.210000,0.211400,0.211300,0.211300,1.000000,0.210600,0.210200,0.209100,0.209200,0.209400,0.209400,0.209400,0.209400,0.209200,0.209000,0.208400,0.208300,0.208200,0.208100,0.208000,0.207400,0.207100,0.207000,0.206900,0.207000,0.207000,0.207000,0.207000,0.206100,0.206200,0.206600,0.207000,0.206900,0.206700,0.206500,0.205100,0.205000,0.204900,0.204800,0.204300,0.204100,0.204000
0.088100,0.086200,0.086200,0.086200,0.086200,0.086200,0.086200,0.086100,0.086000,0.085800,0.085700,0.085700,0.085800,0.085900,0.086000,0.086000,0.086100,0.220400,0.223400,0.223400,0.222000,0.222000,0.222000,0.222000,0.220200,0.220200,0.220200,0.220200,0.220200,0.220200,0.220400,0.219400,0.219500,0.219600,0.219900,0.220100,0.217400,0.217300,0.217300,0.217000,0.216600,0.214600,0.214600,0.214600,0.216100,0.217800,0.218500,0.219600,0.219600,0.218500,0.218400,0.217300,0.216600,0.215400,0.215400,0.215200,0.213300,0.213100,0.213200,0.213200,0.215600,0.215700,0.215800,0.215900,0.216000,0.216000,0.216100,0.216200,0.218300,0.218400,0.216600,0.214800,0.214300,0.214300,0.214300,0.214300,0.214400,0.214300,0.214300,0.216600,0.216500,0.216500,0.216400,0.216400,0.216200,0.214400,0.214400,0.215700,0.215800,0.215200,0.214200,0.214200,0.214200,0.214400,0.214500,0.214000,0.212400,0.212400,0.212300,0.212100,0.212000,0.211500,0.211500,0.214100,0.214200,0.213500,0.213400,0.213400,0.213300,0.212000,0.210200,0.210300,0.211300,0.211300,0.211400,0.211400,0.211400,0.211300,0.212000,0.212900,0.213400,0.213000,0.211400,0.211300,0.211200,0.211100,0.211000,0.210700,0.210700,0.210700,0.210700,0.210900,0.211000,0.212000,0.214200,0.218500,0.220800,0.221200,0.221100,0.221000,0.221000,0.220800,0.220800,0.220800,0.220800,0.220800,0.220900,0.221000,0.220900,0.220800,0.220800,0.219800,0.219700,0.219600,0.219500,0.215900,0.212000,1.000000,0.162500,0.162500,1.000000,1.000000,0.213900,0.214000,0.214300,0.215800,0.216400,0.216500,0.216000,0.216000,0.216300,0.216500,0.216500,0.215500,0.215000,0.214700,0.214800,0.214800,0.214800,0.214800,0.214400,0.212500,0.212500,0.213900,0.213800,0.213800,0.213200,0.213200,0.213200,0.213200,0.213300,0.213300,0.213300,0.213200,0.212400,0.212200,0.211800,0.211800,0.211800,0.211700,0.211600,0.211500,0.211500,0.211500,0.211500,0.211600,0.211800,0.212000,0.210000,0.209400,0.209400,0.209300,0.209200,0.208900,0.208900,0.210200,0.210400,0.210800,0.210600,0.210300,0.208900,0.209000,0.209100,0.209300,0.209300,0.209200,0.209200,0.208700,0.208400,0.208100,0.208000,0.208000,0.207800,0.207600,0.206900,0.206600,0.206500,0.206500,0.206800,0.206900,0.206000,0.205800,0.205600,0.205600,0.204500,0.204500,0.204500,0.204500,0.204500,0.204600,0.204700,0.204700,0.204600,0.204200,0.202500,0.202500
0.086200,0.085600,0.086000,0.086100,0.086200,0.086200,0.086100,0.084800,0.084900,0.085200,0.085500,0.085600,0.085700,0.085900,0.085900,0.086000,0.086000,0.217400,0.220400,0.220300,0.220300,0.220200,0.220200,0.220200,0.218800,0.217500,0.217500,0.217600,0.217900,0.218600,0.219300,0.219400,0.218000,0.217600,0.217400,0.217400,0.217300,0.216000,0.215800,0.215000,0.214800,0.213100,0.213100,0.213100,0.214500,0.216500,0.216700,0.218400,0.218400,0.218300,0.217700,0.215500,0.215500,0.213900,0.213900,0.213700,0.212900,0.211600,0.211500,0.211600,0.212000,0.213000,0.214000,0.214800,0.214800,0.214900,0.215000,0.215100,0.215200,0.215100,0.214300,0.214300,0.214200,0.214300,0.214300,0.213200,0.213000,0.213000,0.213000,0.214200,0.215400,0.215300,0.215200,0.214900,0.213000,0.213000,0.213000,0.213100,0.215500,0.213900,0.212000,0.212000,0.211900,0.213800,0.213900,0.212600,0.212200,0.211100,0.210800,0.210400,0.210300,0.210000,0.210000,0.212200,0.212100,0.212000,0.211900,0.211800,0.210400,0.210000,0.209200,0.209200,0.209200,0.209300,0.209800,0.209900,0.209800,0.209700,0.211200,0.212400,0.212800,0.211500,0.211400,0.211300,0.211200,0.210200,0.208700,0.208700,0.208700,0.208700,0.208700,0.210800,0.211000,0.211300,0.211900,0.214200,0.220700,0.220900,0.221000,0.221000,0.220900,0.220800,0.220700,0.220700,0.219800,0.219700,0.219700,0.219600,0.219600,0.220700,0.220500,0.219800,0.219600,0.219400,0.215800,1.000000,0.210000,1.000000,0.162600,0.163400,0.213000,0.213000,0.213000,0.214000,0.214200,0.215700,0.216300,0.216100,0.215900,0.215900,0.216000,0.216400,0.216400,0.215200,0.215000,0.214000,0.214400,0.214800,0.214800,0.214800,0.212500,0.212500,0.212500,0.212500,0.213800,0.213800,0.213200,0.213100,0.213100,0.213100,0.213200,0.213200,0.213200,0.213100,0.212300,0.212000,0.211700,0.211700,0.211700,0.211700,0.211600,0.211500,0.211400,0.211400,0.211400,0.211500,0.210400,0.210100,0.209500,0.209400,0.209300,0.209200,0.209100,0.208400,0.208000,0.208400,0.209400,0.210500,0.210300,0.210200,0.208700,0.208900,0.209000,0.209100,0.209100,0.209100,0.209000,0.208600,0.208300,0.208000,0.207600,0.207200,0.207200,0.207100,0.206600,0.206400,0.206300,0.205600,0.206100,0.205900,0.205500,0.205300,0.204500,0.204400,0.204400,0.204400,0.204400,0.204400,0.204400,0.204500,0.204600,0.204600,0.204200,0.202500,0.202500,0.202500
0.085400,0.085400,0.085500,0.085900,0.086000,0.084800,0.084800,0.084800,0.084800,0.084900,0.085300,0.085400,0.085600,0.085800,0.085800,0.085900,0.214100,0.214100,0.217500,0.217500,0.217500,0.216600,0.215600,0.215400,0.214500,0.214200,0.212200,0.211600,0.213700,0.215300,0.217600,0.217500,0.217500,0.217500,0.215400,0.214900,0.214300,0.214100,0.214000,0.213600,0.213100,0.213000,0.212000,0.212100,0.212200,0.215800,0.215800,0.216700,0.216700,0.216700,0.216800,0.214000,0.212400,0.212300,0.212300,0.212500,0.211500,0.211400,0.211300,0.211200,0.211000,0.211000,0.213000,0.213000,0.213000,0.213100,0.213200,0.213300,0.213100,0.213000,0.211500,0.211500,0.211800,0.212200,0.212200,0.212000,0.211900,0.211800,0.211900,0.212000,0.212100,0.212000,0.211900,0.210800,0.210800,0.210700,0.210600,0.210400,0.210300,0.210300,0.210400,0.210500,0.210500,0.211600,0.211500,0.210600,0.208400,0.208200,0.208200,0.208100,0.208100,0.208300,0.208600,0.210000,0.209900,0.209900,0.209900,0.209800,0.209700,0.209300,0.208200,0.208100,0.208000,0.209200,0.209400,0.209600,0.209700,0.209600,0.209600,0.211900,0.211600,0.210000,0.210000,0.210100,0.210200,0.206700,0.206700,0.206700,0.207000,0.207100,0.207300,0.207600,0.209400,0.209600,0.210200,0.211000,0.215800,0.218700,0.220900,0.220800,0.219600,0.219600,0.219600,0.219700,0.219700,0.219700,0.219600,0.219600,0.219400,0.219400,0.219800,0.219300,0.219200,0.214400,0.211900,0.210000,0.208400,1.000000,1.000000,1.000000,0.211600,0.211700,0.211800,0.211900,0.214100,0.215200,0.215800,0.215800,0.215800,0.215800,0.215900,0.216200,0.216300,0.215100,0.214000,0.213900,0.213900,0.214400,0.214700,0.213800,0.212500,0.212500,0.212500,0.212500,0.213800,0.213800,0.213200,0.213000,0.213000,0.213100,0.213200,0.213100,0.212900,0.212300,0.211500,0.211500,0.211500,0.211600,0.211600,0.211700,0.211600,0.211500,0.211400,0.211400,0.210800,0.210400,0.210000,0.209600,0.209300,0.209200,0.209200,0.209000,0.208400,0.207800,0.207800,0.207900,0.208000,0.208200,0.208300,0.208400,0.208600,0.208600,0.208700,0.208800,0.208800,0.208800,0.208700,0.208400,0.208200,0.207300,0.207000,0.206900,0.206900,0.206800,0.206500,0.206200,0.205600,0.205100,0.205100,0.205100,0.205100,0.204900,0.204400,0.204400,0.204400,0.204400,0.204400,0.204400,0.204400,0.204400,0.204500,0.204400,0.202500,0.202500,0.202400,0.202400
0.085300,0.085300,0.085500,0.085700,0.085100,0.084800,0.084800,0.084700,0.084800,0.084900,0.085200,0.085400,0.085500,0.085700,0.085800,0.085900,0.212600,0.212600,0.215900,0.216000,0.216200,0.213700,0.213700,0.213800,0.212700,0.212600,0.211400,0.211300,0.211400,0.213500,0.215600,0.215700,0.215800,0.215700,0.212900,0.212600,0.212500,0.212500,0.212600,0.212700,0.213000,0.211800,0.211700,0.210200,0.210100,0.210000,0.209800,0.209800,0.209800,0.209800,0.210600,0.210700,0.210700,0.210300,0.210300,0.210400,0.211400,0.211300,0.211200,0.211100,0.209800,0.208800,0.209000,0.209300,0.209300,0.209300,0.209000,0.208900,0.209000,0.211400,0.211400,0.211400,0.211300,0.211200,0.211300,0.211300,0.211300,0.210700,0.209800,0.209900,0.210000,0.210000,0.210000,0.209200,0.209200,0.209200,0.209300,0.209500,0.210100,0.210300,0.210400,0.210500,0.210500,0.210600,0.209400,0.208300,0.208100,0.208100,0.208000,0.207100,0.207100,0.207100,0.207100,0.207200,0.207200,0.207400,0.204700,0.206400,0.206400,0.206400,0.205800,0.205700,0.205800,0.205800,0.205800,0.205700,0.205500,0.205300,0.207500,0.209000,0.208800,0.207100,0.206500,0.206300,0.205800,0.204900,0.205000,0.205100,0.206100,0.206100,0.206200,0.206200,0.206200,0.207800,0.209200,0.209900,0.214000,0.217100,0.218700,0.218700,0.218600,0.218500,0.218400,0.218300,0.218100,0.218100,0.219600,0.219600,0.218400,0.219200,0.219200,0.219100,0.215300,0.214400,0.211800,0.210100,0.208400,1.000000,1.000000,1.000000,0.211500,0.210500,0.210500,0.210500,0.210600,0.210700,0.211500,0.212600,0.213600,0.215600,0.215700,0.215800,0.216200,0.215200,0.214000,0.213900,0.213800,0.213800,0.213700,0.213700,0.212500,0.212500,0.212500,0.212500,0.213600,0.213700,0.212800,0.212800,0.213000,0.213000,0.213000,0.213000,0.212400,0.211600,0.211400,0.211400,0.211400,0.211500,0.211600,0.211700,0.211700,0.211600,0.211500,0.211400,0.210400,0.210200,0.209800,0.209300,0.209200,0.209100,0.209100,0.208900,0.207800,0.207800,0.207800,0.207900,0.208000,0.208200,0.208300,0.208400,0.208500,0.208500,0.208600,0.208600,0.208800,0.208700,0.208600,0.208200,0.207100,0.206400,0.206400,0.206600,0.206600,0.206500,0.205800,0.205100,0.205000,0.205000,0.205000,0.204900,0.204800,0.204100,0.203700,0.204000,0.204200,0.204200,0.204200,0.204100,0.203800,0.203100,0.202700,0.202400,0.202400,0.202400,0.202400,0.202300
0.085000,0.085000,0.085300,0.085500,0.084800,0.084800,0.084800,0.084800,0.084900,0.085000,0.085200,0.085300,0.085400,0.085600,0.085700,0.085800,0.211600,0.211600,0.212700,0.212800,0.213000,0.211300,0.211300,0.211300,0.211300,0.209800,0.209800,0.209800,0.209800,0.211200,0.211100,0.210900,0.210900,0.210700,0.208500,0.208100,0.208000,0.207900,0.209000,0.211400,1.000000,0.211700,0.210100,0.207800,0.207800,0.207800,0.207800,0.207900,0.208000,0.208200,0.208500,0.208600,0.208700,0.208700,0.208800,0.210300,0.210300,0.211300,0.211000,0.209800,0.208600,0.206700,0.206800,0.207200,0.207500,0.207600,0.207600,0.207200,0.207200,0.207200,0.209200,0.209100,0.207300,0.207300,0.207400,0.208500,0.208400,0.208300,0.207100,0.205800,0.205800,0.205800,0.205700,0.205600,0.205600,0.205700,0.206500,0.206700,0.206800,0.207000,0.207100,0.207200,0.207200,0.207200,0.206600,0.206600,0.206600,0.206600,0.206600,0.205700,0.204400,0.204100,0.204100,0.204200,0.204200,0.204100,0.204000,0.204000,0.204800,0.205000,0.205000,0.204200,0.204300,0.204400,0.205100,0.205000,0.205100,0.205100,0.205200,0.207200,0.207000,0.206700,0.204700,0.204500,0.204400,0.204300,0.204500,0.204900,0.205000,0.204900,0.204700,0.204700,0.204700,0.204700,0.204800,0.207000,0.209900,0.215500,0.218700,0.218700,0.218600,0.218500,0.218400,0.217000,0.216800,0.216800,0.218200,0.218300,0.216900,0.216900,0.218900,0.219000,0.215300,0.214300,0.211700,0.210100,0.207800,1.000000,1.000000,0.210700,0.210400,0.210400,0.210400,0.209800,0.208900,0.208800,0.208800,0.211800,0.212500,0.213600,0.215600,0.215700,0.216100,0.216100,0.216100,0.216000,0.214100,0.213800,0.213800,0.213800,0.213800,0.213700,0.213600,0.213600,0.213600,0.213600,0.212400,0.212700,0.212900,0.212900,0.213000,0.212700,0.211500,0.211400,0.211300,0.211200,0.210400,0.211400,0.211600,0.211700,0.211800,0.211700,0.211000,0.210300,0.210100,0.210000,0.209100,0.209000,0.209000,0.209000,0.208900,0.207800,0.207800,0.207800,0.207800,0.207900,0.208000,0.208200,0.208300,0.208400,0.208400,0.208300,0.208200,0.207600,0.207300,0.207200,0.207100,0.207000,0.206400,0.206300,0.206200,0.206200,0.206300,0.206200,0.205100,0.205100,0.205000,0.204900,0.204900,0.204800,0.204600,0.203500,0.203500,0.203700,0.204000,0.204200,0.204200,0.203900,0.203400,0.201700,0.201700,0.201700,0.201700,0.202400,0.202300,0.202300
0.084900,0.084900,0.084800,0.085500,0.084700,0.084700,0.084800,0.084800,0.085000,0.085100,0.085300,0.085300,0.085400,0.085600,0.085700,1.000000,0.210800,0.211200,0.211600,0.211400,0.211300,0.209500,0.209500,0.209600,0.209600,0.209700,0.208900,0.208900,0.208900,0.208800,0.208800,0.208700,0.208600,0.208600,0.208100,0.206400,0.204800,0.204600,0.204500,0.206400,0.209300,0.209300,0.206200,0.206200,0.206200,0.206200,0.206400,0.206500,0.206400,0.206300,0.206200,0.206200,0.208000,0.208700,0.208700,0.208600,0.208300,0.208200,0.208200,0.206500,0.206100,0.206000,0.205900,0.205900,0.205900,0.206100,0.207300,0.207200,0.205700,0.205600,0.205500,0.205400,0.205300,0.205300,0.205300,0.205300,0.205400,0.205400,0.205500,0.204000,0.203900,0.203900,0.203800,0.203800,0.203700,0.203900,0.204100,0.204200,0.204800,0.205200,0.205600,0.205800,0.206100,0.206400,0.206400,0.205400,0.204900,0.204900,0.204800,0.204400,0.203900,0.202600,0.202600,0.204100,0.204100,0.203900,0.202600,0.202600,0.202600,0.201400,0.203200,0.203300,0.203000,0.203000,0.202900,0.202900,0.203000,0.201900,0.201900,0.202000,0.202100,0.202900,0.201400,0.201400,0.201500,0.201600,0.202000,0.202000,0.202100,0.200000,0.199900,0.201100,0.201100,0.201100,0.201100,0.201000,0.207000,0.215500,0.220100,0.221000,0.220200,0.218600,0.217000,0.217000,0.216200,0.216600,0.216700,0.216800,0.215100,0.215100,0.216800,0.219000,0.219000,0.211700,0.210300,1.000000,1.000000,1.000000,1.000000,1.000000,0.206200,0.206100,0.208000,0.208000,0.207900,0.207700,0.207700,0.207700,0.211700,0.212300,0.212400,0.215600,0.216000,0.216000,0.216100,0.216000,0.216000,0.214400,0.214000,0.214000,0.213800,0.213700,0.213600,0.213600,0.213600,0.212200,0.212200,0.212200,0.212200,0.212900,0.212900,0.211200,0.211300,0.211300,0.210300,0.210300,0.210400,0.210400,0.211500,0.211700,0.211800,0.211100,0.210400,0.210200,0.209900,0.209600,0.209000,0.209000,0.209000,0.208900,0.208900,0.207800,0.207800,0.207800,0.207800,0.208100,0.208200,0.208300,0.208400,0.208400,0.208400,0.208200,0.208100,0.207500,0.207200,0.207100,0.207000,0.206800,0.206400,0.206200,0.206100,0.206100,0.206000,0.205300,0.205100,0.205100,0.205000,0.204900,0.204800,0.204300,0.203400,0.203400,0.203400,0.203400,0.203600,0.203900,0.204000,0.202700,0.201700,0.201600,0.201500,0.201500,0.201400,0.201400,0.201200,0.201100
0.084800,0.084700,0.084500,0.084400,0.084400,0.084700,0.084800,0.084800,0.085100,0.085200,0.085300,0.085400,0.085400,0.085600,0.085700,1.000000,0.208800,0.211000,0.211400,0.211200,0.209500,0.208000,0.208000,0.208100,0.208200,0.208400,0.207100,0.207100,0.207200,0.207100,0.207000,0.206800,0.206700,0.206600,0.205800,0.204800,0.204100,0.204200,0.204300,0.204300,0.206400,0.206300,0.206200,0.206200,0.205400,0.204600,0.204100,0.204000,0.203800,0.203700,0.203700,0.204700,0.207000,0.207000,0.207000,0.206900,0.206700,0.206600,0.205400,0.204300,0.204400,0.204400,0.205100,0.205700,0.205800,0.205800,0.205800,0.205700,0.205700,0.203600,0.203600,0.203500,0.203800,0.204000,0.203400,0.203400,0.203400,0.203200,0.203100,0.202800,0.202700,0.202600,0.202400,0.202400,0.202300,0.203800,0.204000,0.204100,0.204200,0.204200,0.204200,0.204200,0.204200,0.205100,0.205200,0.203000,0.202700,0.202700,0.202700,0.202600,0.202600,0.202600,0.202600,0.202700,0.203000,0.202200,0.200800,0.200800,0.200900,0.201400,0.201400,0.201400,0.201200,0.201000,0.200900,0.200800,0.200700,0.199000,0.199000,0.199000,0.198900,0.198900,0.198800,0.198800,0.198800,0.198800,0.200200,0.200200,0.198600,0.198400,0.198400,0.198300,0.199600,0.199600,0.199600,0.199600,0.203000,0.212000,0.220300,0.221000,0.220100,0.220100,0.217000,0.216000,0.216000,0.216100,0.216600,0.215000,0.213300,0.213400,0.213400,0.216800,0.219000,0.211700,0.210300,1.000000,1.000000,1.000000,1.000000,1.000000,0.202200,0.202100,0.202000,0.203400,0.205300,0.205400,0.205600,0.207700,0.211600,0.211900,0.212400,0.215700,0.215900,0.216000,0.216000,0.216000,0.216000,0.214400,0.214200,0.214000,0.213900,0.213000,0.213100,0.213500,0.212200,0.210700,0.210700,0.210700,0.212100,0.212800,0.211400,0.210000,0.210000,0.209800,0.209600,0.209000,0.208800,0.210400,0.210400,0.211500,0.211700,0.210400,0.210200,0.210000,0.209600,0.209200,0.207600,0.207600,0.208900,0.208900,0.208900,0.208800,0.207700,0.207800,0.207800,0.208200,0.208200,0.208400,0.208400,0.208400,0.208300,0.208100,0.208000,0.207200,0.207100,0.207100,0.207000,0.206900,0.206400,0.206200,0.206100,0.206000,0.205800,0.205200,0.205100,0.205000,0.205000,0.204900,0.204800,0.204200,0.203400,0.203300,0.203300,0.203300,0.203400,0.203900,0.203900,0.202200,0.201400,0.201400,0.201400,0.201400,0.201300,0.201300,0.201100,0.201000
0.084500,0.084400,0.084300,0.084300,0.084300,0.084500,0.084700,0.084800,0.085100,0.085100,0.085300,0.085300,0.085400,0.085600,0.086400,0.203200,0.206000,0.205200,0.205200,0.205100,0.205000,0.204900,0.204900,0.204900,0.204800,0.204800,0.204800,0.204700,0.204700,0.204700,0.204800,0.203600,0.203500,0.203700,0.203700,0.204000,0.204100,0.204200,0.204200,0.204200,0.204300,0.204300,0.204300,0.204200,0.204200,0.203500,0.202200,0.202100,0.202100,0.202100,0.202200,0.203600,0.205100,0.205200,0.205200,0.205200,0.204400,0.204100,0.203000,0.201800,0.202000,0.202100,0.203000,0.203100,0.203400,0.203600,0.203800,0.203900,0.202500,0.202100,0.202000,0.202000,0.203400,0.203400,0.201800,0.201800,0.201900,0.201900,0.201800,0.200200,0.200000,0.200100,0.200100,0.200800,0.201000,0.201300,0.202100,0.202100,0.203100,0.201800,0.201800,0.201800,0.201800,0.201800,0.200400,0.198900,0.198900,0.199000,0.199100,0.200400,0.200400,0.200500,0.200500,0.200500,0.199600,0.198600,0.198600,0.198600,0.198800,0.198900,0.200000,0.200000,0.199800,0.198500,0.198400,0.198300,0.198200,0.198100,0.198100,0.199000,0.198900,0.198900,0.197000,0.197000,0.197000,0.197100,0.198800,0.198700,0.197800,0.197600,0.197300,0.197400,0.197600,0.198000,0.198200,0.198300,0.200800,0.206900,0.219600,0.219600,0.219700,0.219500,0.216900,0.216000,0.216000,0.216000,0.214800,0.211800,0.211800,0.211800,0.213400,0.213400,0.216700,0.216600,0.210400,1.000000,1.000000,1.000000,1.000000,1.000000,0.199800,0.199400,0.199300,0.196700,0.196600,0.196600,0.200300,0.207800,0.211500,0.211600,0.212300,0.215700,0.215800,0.215900,0.216000,0.216000,0.214500,0.214400,0.214200,0.214000,0.212900,0.212900,0.211800,0.211800,0.211900,0.210700,0.210700,0.210700,0.210600,0.212000,0.210200,0.210100,0.209400,0.209400,0.209200,0.207700,0.206200,0.206200,0.210100,0.210300,0.210400,0.210300,0.210100,0.209800,0.208800,0.207400,0.207400,0.207600,0.207600,0.209000,0.208900,0.207600,0.207600,0.207600,0.207600,0.208200,0.208300,0.208300,0.208300,0.208100,0.207900,0.207600,0.207400,0.207100,0.207000,0.207000,0.206800,0.206800,0.206500,0.206300,0.206200,0.206000,0.205300,0.205200,0.205100,0.205000,0.205000,0.204900,0.204700,0.204100,0.203900,0.203300,0.203200,0.203200,0.203200,0.203800,0.202600,0.201300,0.201300,0.201300,0.201300,0.201300,0.201200,0.201200,0.201000,0.201000
0.084300,0.084200,0.084200,0.084300,0.084300,0.084600,0.084700,0.084800,0.085000,0.085100,0.085200,0.085300,0.085300,0.086400,0.086400,0.202600,0.203100,0.203000,0.203000,0.202900,0.202800,0.202800,0.202900,0.203000,0.203000,0.203000,0.202900,0.202900,0.203000,0.203000,0.203100,0.202900,0.202300,0.202200,0.202100,0.203700,0.204000,0.204100,0.204200,0.203700,0.202800,0.202800,0.202800,0.202700,0.202600,0.202400,0.201200,0.201100,0.200500,0.200300,0.200500,0.200800,0.200800,0.200500,0.200400,0.200400,0.200300,0.201400,0.201300,0.201200,0.200300,0.199400,0.199400,0.199600,0.199800,0.199800,0.199600,0.199400,0.199400,0.199500,0.199700,0.199800,0.199300,0.199000,0.198900,0.198800,0.198900,0.199000,0.199300,0.199400,0.198200,0.198200,0.198300,0.198400,0.198900,0.201000,0.201500,0.201800,0.201800,0.200100,0.200100,0.200100,0.200100,0.200100,0.198300,0.197800,0.197700,0.197600,0.199100,0.199200,0.199200,0.199200,0.199200,0.198600,0.196800,0.196800,0.196700,0.196700,0.198600,0.198700,0.198800,0.198700,0.198500,0.197100,0.197000,0.195100,0.195100,0.195100,0.195100,0.196600,0.196800,0.195600,0.195600,0.195700,0.195800,0.196000,0.196600,0.196600,0.196500,0.196400,0.194400,0.194400,0.194400,0.194500,0.194600,0.194800,0.195000,0.198500,1.000000,0.219600,0.219600,0.219600,0.215900,0.215900,0.214700,0.214000,0.214000,0.208200,0.208200,0.210700,0.213400,0.213400,0.213400,0.219100,1.000000,1.000000,1.000000,1.000000,1.000000,1.000000,0.199400,0.198100,0.196700,0.195500,0.195500,0.195900,0.196500,0.207800,0.211300,0.211400,0.212400,0.215700,0.215800,0.215900,0.215900,0.214600,0.214500,0.212600,0.212200,0.212700,0.212800,0.212900,0.211800,0.211800,0.211800,0.210700,0.210600,0.210600,0.210500,0.210400,0.210100,0.210100,0.209400,0.209300,0.207700,0.206200,0.206200,0.206200,0.210100,0.210200,0.210300,0.210200,0.210100,0.209600,0.207200,0.207300,0.207400,0.207500,0.209100,0.209000,0.209000,0.207500,0.207500,0.207500,0.207500,0.208200,0.208200,0.208200,0.208100,0.207800,0.207600,0.207400,0.207300,0.207100,0.207000,0.206900,0.205600,0.206700,0.206400,0.206200,0.205900,0.205800,0.205600,0.205100,0.205000,0.205000,0.204900,0.204300,0.204100,0.204000,0.203900,0.203300,0.203000,0.202900,0.202700,0.202600,0.201400,0.201300,0.201200,0.201200,0.201200,0.201100,0.201000,0.201000,0.200900,0.200900
0.084000,0.084100,0.084200,0.084300,0.084400,0.084600,0.084700,0.084700,0.084600,0.084500,0.085200,0.085200,0.085200,0.086300,1.000000,0.200500,0.200900,0.200900,0.201100,0.201100,0.201100,0.199500,0.199500,0.199600,0.200000,0.200500,0.200600,0.200600,0.200600,0.200600,0.200500,0.200400,0.200500,0.200500,0.200600,0.200600,0.200700,0.200700,0.200800,0.200800,0.199800,0.199800,0.200400,0.200500,0.200500,0.200200,0.199700,0.199600,0.199400,0.199400,0.199400,0.199300,0.199300,0.199200,0.199200,0.199100,0.199100,0.200200,0.200200,0.200100,0.199300,0.199300,0.199400,0.199400,0.199700,0.199500,0.197800,0.197700,0.197800,0.198000,0.198200,0.198200,0.198000,0.197900,0.197700,0.197600,0.197600,0.197600,0.197800,0.197900,0.197900,0.197600,0.197600,0.196100,0.197600,0.197600,0.197500,0.195900,0.195900,0.195900,0.196100,0.196200,0.196300,0.196300,0.196200,0.195300,0.195300,0.195300,0.195300,0.195300,0.195200,0.195100,0.195000,0.194600,0.193000,0.193000,0.193000,0.193100,0.195000,0.195000,0.194900,0.194600,0.194600,0.194600,0.194600,0.194600,0.194600,0.194600,0.194800,0.195100,0.195200,0.194100,0.194100,0.194200,0.194600,0.194700,0.194700,0.194700,0.194600,0.194500,0.192600,0.192600,0.192600,0.193300,0.193600,0.193900,0.194300,0.195100,1.000000,0.219600,0.219500,1.000000,1.000000,1.000000,1.000000,0.214000,0.214000,0.204700,0.204700,0.203200,0.210700,0.213400,0.213400,0.215200,0.218300,1.000000,1.000000,1.000000,1.000000,0.192200,0.192200,0.192200,0.193400,0.193400,0.193300,0.193200,0.193200,0.206400,0.209300,0.211400,0.214200,0.215800,0.215800,0.215800,0.214900,0.214800,0.212400,0.211800,0.211900,0.212100,0.212800,0.212900,0.213000,0.213100,0.213200,0.213200,0.213200,0.210600,0.210400,0.210300,0.210100,0.210100,0.209400,0.209300,0.209300,0.207700,0.206200,0.210000,0.210100,0.210100,0.210200,0.208400,0.206600,0.206700,0.206700,0.207100,0.207200,0.209600,0.209400,0.209100,0.209000,0.207400,0.207400,0.207400,0.207400,0.208200,0.208200,0.208100,0.207700,0.207500,0.207400,0.207200,0.207100,0.207000,0.206900,0.203500,0.200300,0.200400,0.205600,0.205900,0.205800,0.205600,0.205500,0.205100,0.205000,0.204900,0.204800,0.204100,0.204000,0.203900,0.203800,0.203100,0.202900,0.202800,0.202600,0.202500,0.201400,0.201300,0.201200,0.201200,0.201100,0.201100,0.201000,0.200900,0.199100,0.199100
0.083800,0.084000,0.084100,0.084400,0.084500,0.084600,0.084700,0.084600,0.084500,0.084300,0.085200,0.085200,0.085200,0.086100,1.000000,0.199100,0.200200,0.199900,0.199800,0.199700,0.199600,0.199500,0.199500,0.199600,0.199600,0.200500,0.200600,0.200600,0.200600,0.199700,0.198700,0.198400,0.198400,0.198400,0.198400,0.198600,0.198700,0.198800,0.198900,0.198800,0.198700,0.198600,0.200000,0.200400,0.200300,0.199400,0.198400,0.198300,0.198300,0.199400,0.198100,0.197800,0.197300,0.196300,0.196300,0.196300,0.196500,0.197000,0.197100,0.197100,0.197200,0.198200,0.198100,0.196700,0.196700,0.196600,0.196600,0.196500,0.196500,0.196600,0.196600,0.196200,0.195000,0.195000,0.195000,0.195400,0.196000,0.196100,0.196100,0.196100,0.196100,0.196100,0.196100,0.196100,0.196100,0.196000,0.196000,0.195700,0.195400,0.195400,0.195500,0.195600,0.195600,0.195500,0.194200,0.194200,0.194000,0.193900,0.193700,0.193300,0.193200,0.193100,0.193100,0.193100,0.193000,0.193000,0.192700,0.192600,0.192600,0.192700,0.192700,0.192700,0.192600,0.192500,0.192500,0.192500,0.192700,0.192800,0.192800,0.191600,0.191600,0.191500,0.191100,0.190900,0.190800,0.190700,0.190600,0.190600,0.191500,0.191500,0.190600,0.190300,0.190500,0.191300,0.191800,0.191800,0.191800,0.191800,1.000000,1.000000,1.000000,1.000000,0.192300,1.000000,1.000000,0.213900,1.000000,0.206400,0.203200,0.200600,1.000000,0.207400,0.207400,0.213500,0.215200,1.000000,1.000000,0.182900,0.190600,0.190800,0.190900,0.191000,0.192100,0.192000,0.192000,0.191000,0.191000,1.000000,0.206400,0.209300,0.214200,0.215800,0.215800,0.214900,0.214800,0.214800,0.211700,0.211800,0.211800,0.212000,0.212000,0.212900,0.213000,0.213100,0.213200,0.213200,0.213200,0.213200,0.207800,0.207800,0.207800,0.210100,0.210100,0.212400,0.212300,0.212000,0.212000,0.210200,0.210100,0.208700,0.206800,0.202100,0.200500,0.198100,0.198100,0.206700,0.206800,0.209600,0.209600,0.209000,0.208900,0.207400,0.207400,0.207400,0.207400,0.208200,0.208100,0.208000,0.206200,0.206200,0.206200,0.206800,0.207000,0.206800,0.205400,0.203600,0.196400,1.000000,0.205400,0.205600,0.205600,0.205600,0.205500,0.205100,0.204800,0.204700,0.204200,0.204100,0.203500,0.203200,0.203100,0.203000,0.202900,0.202800,0.202600,0.202300,0.201500,0.201400,0.201300,0.201200,0.201100,0.201000,0.199200,0.197400,0.197200,0.197200
0.083800,0.084000,0.084200,0.084500,0.084600,0.084600,0.084600,0.084500,0.084400,0.084300,0.084300,0.085000,0.085100,0.086100,0.197200,0.197200,0.198900,0.198800,0.198700,0.198700,0.198700,0.198700,0.198600,0.198500,0.198500,0.198400,0.198400,0.198300,0.198200,0.198000,0.197800,0.196700,0.196600,0.196600,0.196600,0.196500,0.196400,0.196500,0.196500,0.196800,0.197300,0.197400,0.198600,0.199000,0.199100,0.197400,0.197300,0.197300,0.197300,0.198100,0.198100,0.197800,0.196300,0.196200,0.195200,0.195200,0.195300,0.195600,0.195800,0.195900,0.197100,0.196900,0.196900,0.194900,0.194800,0.194800,0.194700,0.196100,0.196500,0.196500,0.195800,0.195000,0.195000,0.194900,0.194600,0.194400,0.194200,0.194200,0.194200,0.194600,0.194800,0.194700,0.194600,0.193300,0.193000,0.193000,0.193900,0.195200,0.195200,0.194500,0.194400,0.194300,0.194100,0.194100,0.192100,0.192100,0.192000,0.191900,0.191700,0.191400,0.191300,0.191300,0.191200,0.191100,0.191000,0.191200,0.191200,0.191400,0.192500,0.191800,0.191800,0.191600,0.191500,0.191300,0.191300,0.191100,0.191200,0.191200,0.191400,0.191600,0.190500,0.190400,0.190000,0.189700,0.189600,0.189400,0.189400,0.189300,0.190100,0.190100,0.190200,0.190000,0.189700,0.189700,0.189700,0.189700,0.189700,0.189700,1.000000,1.000000,1.000000,1.000000,0.191700,0.191800,1.000000,1.000000,1.000000,0.206400,0.198600,1.000000,1.000000,1.000000,1.000000,1.000000,1.000000,1.000000,1.000000,0.182900,0.186300,0.188600,0.188700,0.188800,0.188900,0.190900,0.191000,0.188500,0.188500,0.188400,0.188400,0.209300,0.215900,0.215900,0.215800,0.214800,0.214800,0.214800,0.211700,0.211700,0.211800,0.211900,0.212000,0.213000,0.213000,0.213200,0.213200,0.213200,0.213200,0.213300,0.207800,0.207800,0.207800,0.212800,0.213300,0.212600,0.212500,0.212200,0.212100,0.210600,0.210600,1.000000,0.202100,0.202000,0.198100,0.198100,0.193200,0.199600,0.204000,0.209400,0.209000,0.208900,0.208800,0.207400,0.207400,0.207400,0.207400,0.208200,0.208100,0.207800,0.206200,0.206200,0.206200,0.206100,0.206100,0.205900,0.204800,0.203700,0.201300,0.200600,0.201100,0.205600,0.205500,0.205600,0.205600,0.205100,0.204700,0.204500,0.204200,0.203200,0.203100,0.203100,0.203000,0.203000,0.202900,0.202800,0.202600,0.202300,0.201500,0.201400,0.201300,0.201200,0.200900,0.199200,0.197500,0.197400,0.197300,0.195900
0.083800,0.084000,0.084300,0.084500,0.084600,0.084600,0.084500,0.084400,0.084300,0.084200,0.084300,0.084500,0.084700,0.195700,0.197100,0.197200,0.196200,0.196200,0.196200,0.196200,0.197300,0.195900,0.196000,0.196700,0.196700,0.196700,0.196600,0.196100,0.195900,0.194500,0.194600,0.195700,0.195600,0.195600,0.194600,0.194200,0.192600,0.192700,0.194000,0.193900,0.193800,0.193700,0.193800,0.193800,0.194200,0.194400,0.194500,0.194500,0.195400,0.195400,0.195300,0.195300,0.195200,0.195200,0.195200,0.195200,0.194900,0.194800,0.194800,0.194800,0.195100,0.195200,0.195200,0.193100,0.193100,0.193100,0.193300,0.194400,0.194500,0.194600,0.194700,0.195000,0.194900,0.194800,0.193100,0.191900,0.191900,0.191900,0.191900,0.193200,0.193200,0.193200,0.192000,0.191300,0.191000,0.192000,0.192000,0.193800,0.191800,0.190200,0.190200,0.190300,0.190400,0.190700,0.190600,0.190400,0.190300,0.190300,0.190500,0.191100,0.191300,0.191200,0.191000,0.191000,0.190900,0.190900,0.190300,0.190300,0.190300,0.190400,0.190500,0.190500,0.190400,0.190400,0.190400,0.190700,0.190900,0.189100,0.189000,0.188900,0.188700,0.188600,0.188000,0.187900,0.187900,0.188000,0.188100,0.188200,0.188800,0.188700,0.188700,0.188600,0.188400,0.187800,0.187600,0.187500,0.187500,0.188200,1.000000,1.000000,1.000000,1.000000,0.187900,0.188000,1.000000,1.000000,1.000000,1.000000,1.000000,0.189200,0.189200,0.189200,0.191000,1.000000,1.000000,1.000000,0.160800,1.000000,0.185200,0.186100,0.186000,0.186000,0.186400,0.186600,0.186700,0.185700,0.185600,0.185600,0.185600,1.000000,1.000000,1.000000,0.215000,1.000000,0.214700,0.214700,0.211700,0.211700,0.211800,1.000000,0.211900,0.214400,0.214600,0.214600,0.213200,0.213100,1.000000,0.216900,0.211300,0.211300,0.211300,0.213300,0.213300,0.212600,0.212600,0.212400,0.212400,0.212100,1.000000,1.000000,0.202100,0.200400,0.198100,0.193200,0.189200,0.189200,0.190600,0.196100,0.202100,0.207100,0.208800,0.208700,0.207400,0.207500,0.208300,0.208200,0.208100,0.207900,0.206200,0.206100,0.206100,0.206100,0.206000,0.204800,0.204800,0.204200,0.201200,0.201100,0.201200,1.000000,1.000000,0.205600,0.205700,0.205800,0.205200,0.204400,0.204200,0.203100,0.203000,0.203000,0.203000,0.202900,0.202900,0.202800,0.202700,0.202700,0.201500,0.201400,0.201300,0.200900,0.199200,0.199200,0.197500,0.197400,0.197300,0.197200
0.084400,0.084400,0.084400,0.084500,0.084500,0.084500,0.084500,0.084200,0.084200,0.084200,0.084400,0.084500,0.084700,0.192600,0.194000,0.194000,0.192800,0.192800,0.192900,0.193000,0.194100,0.194200,0.194400,0.195500,0.196700,0.196700,0.195700,0.194800,0.194300,0.193600,0.193800,0.194600,0.195600,0.195300,0.192700,0.192600,0.192400,0.192500,0.192500,0.192300,0.191600,0.191500,0.191500,0.191700,0.192500,0.193500,0.193500,0.193700,0.194100,0.194100,0.193500,0.193500,0.193500,0.193500,0.193500,0.193500,0.193400,0.191700,0.191600,0.191600,0.191600,0.191400,0.191300,0.191100,0.191000,0.191000,0.191000,0.191000,0.190600,0.190500,0.190600,0.192100,0.192000,0.190500,0.189000,0.189000,0.189100,0.189200,0.189800,0.189900,0.190000,0.190100,0.189800,0.189800,0.189800,0.191000,0.191000,0.191400,0.190200,0.189100,0.189100,0.189100,0.190100,0.190500,0.190400,0.190400,0.190300,0.190300,0.190400,0.190500,0.191200,0.191000,0.191000,0.190900,0.190700,0.189100,0.189100,0.189100,0.189100,0.189000,0.188900,0.188700,0.188700,0.188700,0.188700,0.188800,0.188900,0.187500,0.186500,0.186500,0.186400,0.186400,0.186300,0.186300,0.186400,0.186500,0.186700,0.186700,0.186400,0.185200,0.184400,0.184500,0.184500,0.184500,0.184400,0.184400,0.184500,0.184500,0.184400,0.184200,0.183900,0.183900,0.183900,0.184100,0.184300,0.184500,1.000000,0.184800,0.185000,0.185100,0.185100,0.185200,0.188700,1.000000,1.000000,0.160800,1.000000,0.178600,0.184000,0.185200,0.185200,0.185200,0.185200,0.185100,0.185000,0.184800,0.184700,0.184500,0.184200,0.184200,1.000000,1.000000,1.000000,1.000000,1.000000,1.000000,0.211600,1.000000,1.000000,1.000000,1.000000,0.216000,0.215900,0.214700,0.211000,0.211000,1.000000,1.000000,0.212700,0.211300,0.211300,0.211300,0.211300,1.000000,1.000000,0.214700,0.214800,0.214900,1.000000,1.000000,0.202000,0.200300,0.196700,0.187700,0.184400,0.183000,0.183100,0.188100,0.196100,0.207300,0.208700,0.208700,0.208700,0.208400,0.208400,0.208300,0.210000,0.209700,0.207800,0.207400,0.206100,0.206000,0.206000,0.205900,0.204800,0.204800,0.204600,1.000000,1.000000,1.000000,1.000000,0.205700,0.206100,0.206000,0.205900,0.204800,0.204300,0.204000,0.202900,0.202900,0.202900,0.202900,0.202900,0.202900,0.202800,0.202700,0.202700,0.201400,0.201400,0.199200,0.199200,0.199200,0.197600,0.197400,0.197300,0.197200
0.084400,0.084400,0.083800,0.084300,0.084300,0.084200,0.084100,0.084100,0.084100,0.084100,0.084400,0.084600,0.084700,0.192500,0.194000,0.192900,0.192800,0.192800,0.192800,0.192800,0.193600,0.194000,0.194200,0.194600,0.193300,0.193400,0.193500,0.192900,0.191200,0.191200,0.193000,0.192900,0.192800,0.191200,0.191200,0.191300,0.191400,0.191900,0.191700,0.191600,0.191500,0.191200,0.190700,0.190600,0.190600,0.191600,0.191300,0.190500,0.190500,0.189600,0.189600,0.189500,0.189600,0.190700,0.190700,0.190700,0.190700,0.190600,0.190200,0.190100,0.190000,0.189900,0.189800,0.189700,0.189700,0.189800,0.189900,0.190000,0.190100,0.189600,0.189400,0.189200,0.189000,0.188700,0.188600,0.188600,0.189000,0.189100,0.189200,0.189500,0.189700,0.189700,0.189200,0.189000,0.188800,0.190000,0.190000,0.190100,0.189000,0.189000,0.189000,0.189000,0.188900,0.188700,0.188400,0.188200,0.188000,0.187900,0.187800,0.187700,0.187600,0.187100,0.186900,0.186900,0.186800,0.186800,0.186700,0.186600,0.186600,0.186400,0.186400,0.186100,0.186000,0.185900,0.185900,0.186000,0.186000,0.184900,0.183800,0.183800,0.183800,0.183800,0.183700,0.183400,0.183200,0.184100,0.185100,0.185000,0.183600,0.183100,0.182800,0.182700,0.182800,0.184000,0.184200,0.184400,0.184400,0.184400,0.184200,0.182300,0.182200,0.183300,0.183900,0.183900,0.182700,0.182700,0.182800,0.182800,0.183600,0.183600,0.183100,0.183000,0.181600,1.000000,0.160800,0.160800,0.160800,0.178600,0.184000,0.183900,0.183600,0.183300,0.183100,0.183000,0.180500,0.181000,0.181100,0.181100,0.180400,0.179500,0.179500,0.179500,1.000000,1.000000,1.000000,1.000000,0.181500,0.181500,1.000000,1.000000,1.000000,1.000000,0.217000,0.217000,1.000000,1.000000,1.000000,0.217000,0.216900,0.211300,1.000000,0.201400,0.198700,0.198700,1.000000,0.214800,0.214800,0.214900,1.000000,1.000000,1.000000,1.000000,1.000000,1.000000,0.180400,0.180400,0.180600,0.180700,1.000000,1.000000,0.207900,0.208800,0.210600,0.209600,0.209600,0.210500,0.210500,0.210500,0.209100,0.207700,0.207600,0.206000,0.206000,0.205900,0.205800,0.205400,0.205100,0.205100,1.000000,1.000000,1.000000,1.000000,0.206200,0.206200,0.206200,0.206100,0.204600,0.204500,0.203800,0.202800,0.202800,0.202800,0.202900,0.202900,0.202900,0.202800,0.202800,0.202800,0.201400,0.199200,0.199200,0.200200,0.199900,0.199400,0.197200,0.197200
0.084400,0.083600,0.083600,0.083800,0.084100,0.084100,0.084000,0.084000,0.084100,0.084100,0.084500,0.084900,0.190500,0.190500,0.192700,0.192800,0.192800,0.192800,0.192800,0.192800,0.192700,0.192400,0.192200,0.192100,0.191900,0.191700,0.191500,0.189100,0.187500,0.187600,0.190100,0.191300,0.191200,0.191200,0.191200,0.191300,0.191300,0.191600,0.191600,0.191500,0.191400,0.190600,0.190600,0.190500,0.190500,0.190400,0.190400,0.190500,0.189600,0.189600,0.189500,0.189500,0.189500,0.189600,0.189600,0.189700,0.189800,0.189900,0.189900,0.189600,0.188500,0.188500,0.188600,0.188600,0.188700,0.188700,0.188800,0.190000,0.189700,0.189000,0.189000,0.188800,0.187400,0.187400,0.187500,0.187500,0.187400,0.187300,0.187200,0.187300,0.187400,0.187400,0.185900,0.185800,0.185800,0.185800,0.185900,0.186000,0.187600,0.189000,0.189000,0.187500,0.187100,0.187000,0.186800,0.186800,0.186500,0.186400,0.186200,0.186100,0.186100,0.184900,0.184900,0.184900,0.184900,0.185300,0.185400,0.185400,0.185500,0.185800,0.186300,0.185700,0.185600,0.185400,0.185400,0.185300,0.185100,0.184900,0.183700,0.183700,0.183700,0.183700,0.183600,0.183100,0.183100,0.183100,0.184000,0.183600,0.183000,0.182800,0.182100,0.182200,0.182300,0.182700,0.182900,0.183000,0.183000,0.181200,0.181000,0.180800,0.180800,0.181100,0.182200,1.000000,0.180000,0.179800,0.179700,0.179800,0.181100,0.181000,0.180400,0.180200,0.177900,0.172800,0.160700,0.160700,0.160800,0.176700,0.180000,0.180100,0.180300,0.180300,0.179000,0.179000,0.179200,0.179400,0.179300,0.179300,0.179300,0.179300,0.178300,0.178300,1.000000,1.000000,1.000000,0.179800,0.179900,0.180000,0.181500,1.000000,0.219000,0.219000,0.217100,0.216800,1.000000,1.000000,1.000000,1.000000,1.000000,1.000000,0.201400,1.000000,0.182600,1.000000,1.000000,1.000000,1.000000,1.000000,1.000000,1.000000,0.178100,0.178400,1.000000,1.000000,0.178600,0.177800,0.177200,0.177900,1.000000,1.000000,1.000000,1.000000,0.213000,0.210600,0.210600,1.000000,0.210600,0.210600,1.000000,1.000000,1.000000,0.208100,0.208300,0.208300,0.208400,0.207100,0.207000,0.207000,0.205200,1.000000,1.000000,1.000000,0.206200,0.206200,0.206200,0.206200,0.205400,0.204600,0.204600,0.204700,0.204400,0.202800,0.202900,0.202900,0.202900,0.202800,0.202800,0.202800,0.202900,0.200600,0.200400,0.200300,0.200100,0.200000,0.197200,0.197200
0.083400,0.083400,0.083500,0.083700,0.083800,0.083900,0.084000,0.084000,0.084100,0.084100,0.084800,0.188500,0.189500,0.190500,0.190700,0.190900,0.191100,0.191100,0.191100,0.190500,0.190400,0.190400,0.190400,0.190400,0.189400,0.189200,0.189100,0.187400,0.187400,0.185800,0.187700,0.187700,0.188200,0.188700,0.188900,0.189000,0.188800,0.188600,0.188500,0.188200,0.188200,0.188100,0.188100,0.188100,0.188100,0.188100,0.188000,0.187900,0.187400,0.187400,0.187400,0.187400,0.187400,0.187500,0.188600,0.188500,0.188500,0.188400,0.188400,0.188400,0.188400,0.188000,0.187100,0.187100,0.187200,0.187200,0.188600,0.188500,0.188500,0.187500,0.187400,0.187300,0.186400,0.186400,0.186300,0.186300,0.186300,0.186100,0.186000,0.185900,0.186000,0.186000,0.185900,0.185800,0.185800,0.185800,0.185800,0.185900,0.187500,0.187500,0.187500,0.187400,0.185800,0.185700,0.185600,0.185600,0.184600,0.184800,0.184900,0.184800,0.184600,0.182500,0.182300,0.182300,0.182700,0.183200,0.183300,0.183400,0.183500,0.183500,0.183400,0.183300,0.183200,0.183200,0.183000,0.182800,0.182200,0.182200,0.182100,0.182100,0.183700,0.183600,0.183000,0.182900,0.182900,0.182900,0.183000,0.182000,0.181900,0.182000,0.182100,0.182100,0.182200,0.182400,0.182500,0.181500,0.181400,0.181000,0.180800,0.180000,0.179700,0.179800,0.180100,0.180200,0.179800,0.179700,0.179600,0.179500,0.179400,0.178100,0.178000,0.178000,0.177600,0.167800,0.160500,0.160500,0.162900,0.175400,0.178800,0.179000,0.179000,0.179100,0.178000,0.178000,0.178000,0.178400,0.178500,0.177900,0.178300,0.178200,0.177100,0.177100,0.177000,0.176700,0.176800,0.176900,0.177700,0.177900,0.177900,1.000000,1.000000,1.000000,1.000000,1.000000,1.000000,1.000000,1.000000,1.000000,0.216800,1.000000,1.000000,1.000000,0.175200,0.175000,0.174800,0.174600,1.000000,1.000000,1.000000,0.177500,0.177300,0.178400,0.178400,0.178400,1.000000,0.175900,0.176700,0.177900,1.000000,0.214800,0.214800,1.000000,1.000000,0.210700,0.210700,1.000000,0.210700,0.210700,0.210800,0.209200,0.209200,0.209200,0.209300,0.209400,0.209400,1.000000,0.207200,0.207100,1.000000,1.000000,1.000000,1.000000,1.000000,0.206300,0.206300,0.206300,0.207700,0.208900,0.207600,0.207600,0.206000,0.205800,0.204500,0.203900,0.202900,0.202900,0.202900,0.203000,0.204800,0.204800,0.201500,0.200600,0.200200,0.200100,0.199000,0.191300
0.083400,0.083400,0.083400,0.083600,0.083700,0.083900,0.084000,0.084000,0.084100,0.084200,0.085000,0.186900,0.188500,0.189400,0.189400,0.189200,0.189100,0.188600,0.188500,0.188400,0.188400,0.188400,0.189000,0.189200,0.189200,0.189200,0.187400,0.187300,0.185800,0.185800,0.185800,0.187700,0.188200,0.186100,0.186200,0.187000,0.186800,0.186400,0.186400,0.186400,0.186400,0.186500,0.186600,0.186600,0.186600,0.186700,0.186800,0.187000,0.187200,0.187300,0.186100,0.186100,0.186100,0.186100,0.187400,0.187400,0.186500,0.186600,0.186800,0.186900,0.187000,0.187100,0.187100,0.187100,0.187200,0.187200,0.187100,0.187100,0.185500,0.185400,0.185400,0.185200,0.184900,0.184700,0.184700,0.184700,0.184800,0.184800,0.184700,0.184600,0.184600,0.184600,0.184600,0.184600,0.184600,0.184600,0.184600,0.185800,0.186000,0.186100,0.186100,0.186100,0.184300,0.184300,0.184200,0.184500,0.184600,0.183800,0.183700,0.183000,0.182800,0.182300,0.182100,0.182100,0.182000,0.182100,0.181800,0.181700,0.181700,0.181600,0.181600,0.181600,0.181700,0.181700,0.181700,0.181800,0.181900,0.182100,0.182100,0.182000,0.181900,0.181700,0.181700,0.181700,0.182100,0.182600,0.182400,0.181200,0.181100,0.181000,0.180900,0.180900,0.182000,0.182000,0.181700,0.181400,0.181200,0.180800,0.180300,0.179100,0.178800,0.179600,0.179800,0.179800,0.179700,0.179600,0.178300,0.178100,0.178000,0.177900,0.177800,0.177700,0.175700,1.000000,0.160400,0.160400,0.168400,0.175200,0.178000,0.178900,0.179000,0.178000,0.178000,0.178000,0.177900,0.177800,0.177700,0.177600,0.177100,0.178200,0.177100,0.177100,0.176100,0.176000,0.176100,0.176400,0.177200,0.177200,0.177600,1.000000,1.000000,1.000000,1.000000,1.000000,1.000000,1.000000,1.000000,0.215700,1.000000,1.000000,1.000000,0.176700,0.174800,0.174400,0.174300,0.174100,0.174200,0.175200,0.175500,0.176000,0.176700,0.176900,0.176700,0.176700,1.000000,1.000000,0.175700,1.000000,0.214800,0.214800,0.214800,1.000000,1.000000,1.000000,1.000000,1.000000,1.000000,1.000000,0.210800,0.209200,0.209200,0.209200,0.209400,0.209400,0.209400,1.000000,0.208700,1.000000,1.000000,1.000000,1.000000,1.000000,1.000000,0.206300,0.206300,0.207800,0.208900,1.000000,0.209000,0.207600,0.206100,0.206000,0.205800,0.205100,0.203600,0.203000,0.203000,0.203100,0.204800,0.205100,0.204900,0.201500,1.000000,1.000000,0.200000,0.200000
0.081300,0.082000,0.083400,0.083600,0.083700,0.083900,0.084000,0.084100,0.084300,0.084400,0.185000,0.185100,0.186900,0.187000,0.187100,0.187100,0.187100,0.186400,0.186100,0.185500,0.185500,0.185500,0.185900,0.186700,0.186800,0.187100,0.187100,0.185800,0.185800,0.185800,0.185800,0.184600,0.184600,0.184600,0.184800,0.186200,0.186200,0.185800,0.185600,0.185600,0.185600,0.185600,0.185500,0.185400,0.185400,0.185400,0.185400,0.185500,0.185700,0.185900,0.186100,0.186100,0.186100,0.186100,0.186100,0.186300,0.185400,0.185200,0.185300,0.185300,0.185500,0.185600,0.185800,0.185900,0.186100,0.186100,0.183900,0.183700,0.183500,0.182400,0.182300,0.182300,0.183000,0.183400,0.183400,0.183400,0.183400,0.183300,0.183300,0.183200,0.183000,0.182800,0.182600,0.182500,0.182300,0.182200,0.182000,0.181800,0.182600,0.182800,0.182800,0.182800,0.181600,0.181600,0.181700,0.182200,0.182200,0.182100,0.182100,0.181800,0.181600,0.181400,0.181400,0.181400,0.181500,0.181500,0.180600,0.180500,0.180400,0.180300,0.180200,0.180200,0.180300,0.180300,0.180400,0.180500,0.180600,0.180700,0.180700,0.180600,0.179500,0.178900,0.178900,0.178900,0.181000,0.181000,0.181100,0.179600,0.179700,0.179700,0.179800,0.180100,0.180200,0.180200,0.178900,0.179000,0.179200,0.179000,0.178900,0.177900,0.177500,0.176700,0.176700,0.176700,0.176700,0.176800,0.176800,0.176800,0.177900,0.176400,0.176300,0.175500,0.174000,1.000000,0.158800,0.158800,0.170600,0.173900,0.175100,0.176500,0.176500,0.176100,0.175300,0.175400,0.175400,0.176300,0.176300,0.176400,0.176600,0.177000,0.176600,0.175700,0.175400,0.175100,0.175100,0.175400,0.176200,0.176200,0.176300,1.000000,1.000000,1.000000,1.000000,0.174500,0.174500,1.000000,1.000000,1.000000,1.000000,1.000000,1.000000,1.000000,0.174400,0.174300,0.174200,0.174000,0.173900,0.173900,0.174000,0.175700,0.175800,0.175700,0.174000,0.173900,0.173900,0.173900,0.175600,1.000000,1.000000,0.214800,1.000000,1.000000,1.000000,1.000000,1.000000,1.000000,1.000000,1.000000,0.211800,0.211700,0.211000,0.210400,0.210200,1.000000,1.000000,1.000000,1.000000,1.000000,1.000000,0.174500,0.174400,0.174400,1.000000,1.000000,0.207800,1.000000,1.000000,0.209900,0.209000,0.209000,0.206100,0.206100,0.206100,0.205300,1.000000,0.203300,0.203200,0.204700,0.205100,0.205500,1.000000,0.201600,0.203600,0.200100,0.200100,0.200200
0.081200,0.082000,0.082100,0.083500,0.083700,0.083900,0.084000,0.084100,0.084300,0.084400,0.184900,0.185100,0.185200,0.185300,0.185600,0.185700,0.186000,0.186000,0.185500,0.185500,0.185500,0.185400,0.185300,0.185200,0.185200,0.185200,0.185100,0.185000,0.184900,0.184600,0.184600,0.183300,0.183300,0.183300,0.183600,0.185300,0.183600,0.183500,0.183500,0.183300,0.183200,0.183200,0.183200,0.183600,0.184700,0.184600,0.183600,0.183700,0.183700,0.183700,0.183700,0.183700,0.183700,0.184600,0.184600,0.184500,0.184400,0.184300,0.182400,0.182400,0.182300,0.182200,0.183200,0.183100,0.183100,0.183000,0.182700,0.182600,0.182400,0.182300,0.182200,0.182200,0.182300,0.182400,0.182400,0.182400,0.182300,0.182300,0.182200,0.181800,0.181600,0.181500,0.181400,0.181300,0.181200,0.181300,0.181500,0.181600,0.181700,0.181800,0.181800,0.181700,0.181300,0.181200,0.181000,0.180800,0.180700,0.180600,0.180500,0.180400,0.180300,0.180300,0.180300,0.181200,0.180800,0.179700,0.179000,0.179000,0.179000,0.180100,0.179900,0.178200,0.178000,0.178100,0.177900,0.177900,0.177700,0.177700,0.177600,0.177500,0.177400,0.177000,0.176900,0.176800,0.176800,0.177600,0.178000,0.178000,0.178000,0.178000,0.177600,0.177500,0.177500,0.177600,0.177600,0.177700,0.177700,0.177700,0.177700,0.177600,0.176600,0.175700,0.175200,0.175200,0.175200,0.175200,0.175300,0.175400,0.176500,0.176400,0.175200,0.174100,0.170500,0.158800,0.158800,0.158800,0.171900,0.173900,0.173900,0.175000,0.175000,0.174800,0.174400,0.174400,0.175400,0.175500,0.176100,0.176100,0.176000,0.175700,0.175700,0.175600,0.173900,0.172800,0.172700,0.172800,0.173900,0.174300,0.175200,0.175200,0.175000,0.173000,0.172800,0.172600,0.172600,0.172600,0.172600,0.172700,0.172700,0.172800,0.171900,0.171900,0.171900,0.173200,0.173300,0.173400,0.173400,0.173300,0.172700,0.172400,0.172200,0.172000,0.171600,0.171500,0.171500,0.171400,1.000000,1.000000,1.000000,1.000000,1.000000,1.000000,1.000000,1.000000,1.000000,1.000000,1.000000,0.211800,0.211800,0.211700,0.211700,0.211500,1.000000,1.000000,0.172900,0.172900,1.000000,1.000000,0.172400,0.172400,0.172400,0.172500,1.000000,1.000000,1.000000,0.208800,1.000000,1.000000,0.209000,0.207400,0.206100,0.206100,0.206100,0.206100,0.206200,0.206200,0.205700,0.205600,0.205600,1.000000,0.205600,0.206100,0.206000,0.206000,0.204000,1.000000
0.081300,0.082000,0.082200,0.083600,0.083700,0.083900,0.084100,0.084200,0.084400,0.182600,0.182800,0.183900,0.184500,0.183200,0.183200,0.183100,0.184300,0.184300,0.184300,0.184300,0.184400,0.184100,0.183100,0.181600,0.181100,0.181100,0.181100,0.181300,0.181700,0.181700,0.183200,0.183300,0.183300,0.181700,0.181700,0.181700,0.181800,0.181800,0.181700,0.181800,0.183200,0.183100,0.183100,0.183200,0.183400,0.183500,0.183000,0.182900,0.182800,0.182800,0.182800,0.182700,0.182700,0.182700,0.182600,0.182600,0.181500,0.181300,0.181000,0.180900,0.180900,0.181100,0.182000,0.181900,0.181800,0.181600,0.181300,0.181200,0.180600,0.180600,0.180600,0.179700,0.179800,0.179900,0.179900,0.179900,0.179800,0.179500,0.179400,0.179400,0.179300,0.179300,0.179200,0.179000,0.178900,0.180300,0.180400,0.180400,0.180300,0.179800,0.179300,0.179200,0.179000,0.179000,0.179000,0.179200,0.179200,0.179100,0.178000,0.178200,0.178400,0.178600,0.179200,0.179400,0.179500,0.178000,0.177600,0.177600,0.177600,0.178400,0.178400,0.176600,0.176400,0.176200,0.176400,0.176700,0.176300,0.176100,0.176200,0.176200,0.176800,0.176800,0.176800,0.176300,0.176100,0.177400,0.177600,0.177300,0.177200,0.177100,0.176200,0.176000,0.175900,0.175900,0.175900,0.175800,0.175800,0.175800,0.175700,0.175700,0.175400,0.175200,0.175100,0.175100,0.174900,0.173800,0.173900,0.174100,0.174400,0.174300,0.173300,0.172600,0.172600,0.158800,0.158800,0.169500,0.171700,0.171800,0.172000,0.172300,0.173700,0.173700,0.173700,0.173700,0.173800,0.174300,0.174200,0.173300,0.173300,0.173200,0.173200,0.173200,0.172500,0.171600,0.171500,0.171600,0.172800,0.173100,0.173800,0.174800,0.173000,0.172900,0.172800,0.172600,0.172600,0.172300,0.172300,0.172700,0.172700,0.171900,0.171500,0.171400,0.171600,0.171700,0.171600,0.171500,1.000000,0.172400,0.172400,0.172300,0.171900,0.171800,0.171600,0.170400,0.170400,0.170400,0.170500,0.170500,1.000000,0.170500,1.000000,1.000000,0.211400,0.211400,0.207900,1.000000,1.000000,1.000000,0.211800,0.211700,1.000000,1.000000,1.000000,0.170400,0.170300,0.170300,0.170200,0.170100,0.170100,0.170000,0.169900,0.169000,0.169000,0.169000,1.000000,1.000000,0.208800,1.000000,0.208700,0.206100,0.206100,0.206100,0.206100,0.206200,1.000000,0.206100,0.205700,0.205600,0.205600,1.000000,1.000000,0.207600,0.207500,0.206000,1.000000,1.000000
0.082100,0.082300,0.082400,0.083700,0.083700,0.083800,0.083800,0.084100,0.179900,0.181000,0.182600,0.182600,0.183800,0.183100,0.183200,0.183100,0.183100,0.183000,0.183000,0.183000,0.183000,0.181700,0.181400,0.180900,0.180000,0.180100,0.180500,0.180800,0.180800,0.180800,0.181300,0.181600,0.181600,0.181700,0.180600,0.180600,0.180900,0.181600,0.181700,0.180700,0.180800,0.180800,0.180900,0.180900,0.180700,0.180400,0.179800,0.179800,0.179800,0.179800,0.179800,0.179700,0.179600,0.179500,0.179500,0.179500,0.179500,0.179700,0.179600,0.179600,0.180600,0.180700,0.180400,0.180200,0.180100,0.180100,0.180000,0.179800,0.178600,0.178500,0.178100,0.178000,0.178300,0.178400,0.178300,0.178200,0.178100,0.177600,0.177300,0.177600,0.178100,0.178200,0.178200,0.178200,0.178200,0.178700,0.178700,0.178500,0.178500,0.178300,0.178200,0.178200,0.178000,0.178000,0.178000,0.179100,0.179100,0.178000,0.178000,0.177000,0.177200,0.177200,0.177400,0.177800,0.177900,0.177200,0.177000,0.176900,0.176800,0.176500,0.175800,0.175300,0.175200,0.175200,0.175100,0.175200,0.174700,0.174700,0.174800,0.174800,0.174900,0.175100,0.176100,0.175900,0.175800,0.175900,0.176200,0.176400,0.176400,0.176200,0.174600,0.174400,0.173700,0.173600,0.173500,0.173000,0.173000,0.173000,0.174100,0.174100,0.174100,0.174900,0.175000,0.175000,0.173600,0.172400,0.172400,0.172400,0.172600,0.172800,0.172700,0.170700,0.163300,0.158800,0.158800,0.165000,0.171200,0.171600,0.171600,0.171600,0.172500,0.173600,0.173700,0.173700,0.173600,0.173600,0.173400,0.172500,0.172500,0.172200,0.172100,0.172000,0.171600,0.171300,0.170900,0.171100,0.171000,0.171100,0.171200,0.171800,0.171800,0.171600,0.170600,0.169700,0.169700,0.169700,0.170300,0.170400,0.170300,0.170300,0.170200,0.170400,0.170500,0.170200,0.170000,0.169900,0.169900,0.169800,0.169800,0.169800,0.168600,0.168700,0.168800,0.168800,0.169000,0.169200,0.170400,0.170400,1.000000,1.000000,1.000000,1.000000,0.211500,1.000000,1.000000,1.000000,1.000000,1.000000,1.000000,1.000000,0.195600,1.000000,0.169500,0.169400,0.169800,0.170300,0.170200,0.170100,0.168900,0.169000,0.168900,0.168900,0.167600,0.167600,1.000000,1.000000,1.000000,1.000000,0.208500,1.000000,1.000000,1.000000,1.000000,1.000000,1.000000,1.000000,1.000000,1.000000,1.000000,1.000000,0.207600,0.207600,0.207600,0.207600,1.000000,1.000000
0.082100,0.082300,0.082400,0.082600,0.082600,0.082700,0.083500,0.084100,0.179800,0.180000,0.181000,0.182600,0.182800,0.183000,0.183200,0.183100,0.183100,0.183000,0.181800,0.181700,0.181700,0.181200,0.180300,0.179800,0.179700,0.180000,0.180100,0.180400,0.180800,0.180800,0.180800,0.180600,0.180600,0.180600,0.180200,0.180100,0.180100,0.180400,0.180500,0.180600,0.180800,0.179600,0.179800,0.179900,0.180000,0.179800,0.179600,0.179600,0.179500,0.179300,0.178500,0.178300,0.179500,0.179500,0.179500,0.179400,0.179400,0.179500,0.179500,0.179400,0.179400,0.179000,0.178800,0.178700,0.178700,0.178700,0.178700,0.178600,0.178500,0.178000,0.177800,0.177000,0.176800,0.176700,0.176700,0.176600,0.176700,0.176700,0.176900,0.177000,0.176900,0.176900,0.176800,0.176800,0.176900,0.178400,0.178500,0.177200,0.177200,0.177200,0.177200,0.177200,0.177100,0.177100,0.177000,0.177900,0.177800,0.177600,0.176800,0.175900,0.176000,0.176000,0.176000,0.176100,0.176000,0.175900,0.175800,0.175900,0.175400,0.174400,0.174400,0.174400,0.175000,0.175200,0.175100,0.175000,0.173500,0.173500,0.173600,0.173600,0.173600,0.173600,0.175600,0.175600,0.175300,0.175000,0.174800,0.174700,0.174600,0.174600,0.174200,0.173900,0.173600,0.173500,0.172700,0.172000,0.172000,0.172100,0.172400,0.172600,0.172600,0.173300,0.173400,0.173500,0.171800,0.170900,0.170600,0.170800,0.171400,0.171400,0.171200,0.170600,0.159000,0.158900,0.159200,0.166400,0.169600,0.171400,0.171500,0.171500,0.171600,0.171700,0.172100,0.173600,0.173600,0.172300,0.171900,0.171400,0.171300,0.170800,0.170500,0.170300,0.170000,0.169900,0.169900,0.170600,0.170600,0.170600,0.170600,0.170600,0.170500,0.169700,0.169600,0.169600,0.169600,0.169300,0.169300,0.169400,0.169400,0.169200,0.168700,0.168700,0.169900,0.169900,0.170000,0.169900,0.169900,0.168200,0.168200,0.168300,0.168400,0.168700,0.168700,0.168700,0.168600,0.168600,0.169400,0.170400,1.000000,1.000000,1.000000,1.000000,0.211500,1.000000,1.000000,0.168800,0.168800,1.000000,1.000000,1.000000,0.195600,1.000000,0.167200,0.168000,0.168800,0.168900,0.168900,0.168900,0.167600,0.167500,0.167500,0.167400,0.166700,0.166700,1.000000,1.000000,1.000000,1.000000,0.208400,1.000000,1.000000,1.000000,1.000000,1.000000,1.000000,1.000000,1.000000,1.000000,1.000000,1.000000,1.000000,1.000000,0.207600,1.000000,1.000000,1.000000
0.080800,0.082100,0.082300,0.082500,0.082600,1.000000,0.082900,0.179600,0.179600,0.179700,0.179600,0.179600,0.179700,0.179400,0.179300,0.179200,0.179100,0.179000,0.178700,0.178400,0.178300,0.178200,0.178300,0.178200,0.178100,0.178100,0.178200,0.178300,0.178800,0.178800,0.178700,0.178200,0.178100,0.178000,0.177800,0.177700,0.178100,0.178600,0.178600,0.178400,0.178300,0.178200,0.178200,0.178300,0.179200,0.179600,0.179600,0.179600,0.178600,0.177400,0.177300,0.177200,0.178200,0.178200,0.178100,0.178100,0.178100,0.178100,0.178200,0.178200,0.178300,0.178000,0.177800,0.177800,0.177900,0.178200,0.178600,0.178600,0.177900,0.177700,0.177600,0.176800,0.176800,0.176700,0.176600,0.176600,0.176600,0.176700,0.176800,0.176800,0.174800,0.173700,0.173700,0.173800,0.174800,0.175600,0.175700,0.175700,0.175300,0.175100,0.175100,0.175100,0.175000,0.175000,0.175100,0.175100,0.175100,0.175100,0.174400,0.174200,0.174000,0.173900,0.173800,0.173800,0.173700,0.173700,0.173600,0.173400,0.173300,0.173000,0.173000,0.172900,0.174000,0.174700,0.174900,0.173500,0.172400,0.172100,0.172300,0.172300,0.172500,0.172600,0.173600,0.173500,0.173400,0.173300,0.173200,0.173200,0.173100,0.173000,0.172700,0.172400,0.172300,0.172200,0.172100,0.170500,0.170600,0.170600,0.172200,0.172300,0.172300,0.172300,0.172200,0.172000,0.170400,0.170200,0.170300,0.169300,0.170600,0.170600,0.169500,0.168700,0.159000,0.159000,0.164900,0.167200,0.169500,0.169500,0.171300,0.171400,0.171500,0.170800,0.170600,0.170600,0.170600,0.170600,0.170600,0.169400,0.169400,0.169300,0.169300,0.169000,0.167700,0.167800,0.167800,0.169000,0.169200,0.170500,0.169700,0.169400,0.169500,0.169500,0.169500,0.169400,0.169500,0.169000,0.168200,0.168000,0.168000,0.168100,0.168200,0.168400,0.168400,0.168400,0.168400,0.168400,0.168300,0.168100,0.168100,0.168200,0.168300,0.168600,0.168600,0.167400,0.167400,0.167400,0.167400,0.167400,1.000000,1.000000,1.000000,1.000000,0.167500,0.167300,0.167000,0.166800,0.166800,0.166700,1.000000,1.000000,1.000000,0.165700,0.165600,0.165600,0.165700,0.165800,0.166700,0.166500,0.166500,0.166500,0.166500,0.165200,0.165200,0.166700,1.000000,1.000000,1.000000,1.000000,1.000000,1.000000,1.000000,1.000000,1.000000,1.000000,1.000000,1.000000,1.000000,1.000000,1.000000,1.000000,1.000000,1.000000,1.000000,1.000000,1.000000,0.164500
0.080700,0.080800,0.082000,0.082500,0.082500,0.176700,0.176700,0.178200,0.179500,0.179500,0.179300,0.179100,0.179000,0.179100,0.179300,0.179200,0.177700,0.177400,0.177400,0.177400,0.178300,0.178200,0.178200,0.178200,0.176600,0.176600,0.176600,0.176600,0.177100,0.177100,0.177100,0.176900,0.176900,0.177000,0.177200,0.177600,0.177500,0.177400,0.177400,0.177300,0.177300,0.177400,0.177700,0.178100,0.178300,0.176400,0.176400,0.176300,0.176300,0.176300,0.176300,0.176400,0.175100,0.175200,0.175200,0.175400,0.175600,0.175800,0.175900,0.176000,0.176800,0.176800,0.175100,0.175200,0.175400,0.175600,0.175800,0.176100,0.176200,0.176500,0.176600,0.176700,0.176700,0.174900,0.174900,0.174800,0.174800,0.176500,0.176700,0.174600,0.173100,0.172800,0.172700,0.172600,0.172700,0.174700,0.174700,0.174600,0.174400,0.174200,0.174000,0.173900,0.173600,0.173500,0.173400,0.173400,0.173300,0.173100,0.173000,0.172900,0.172800,0.172800,0.172800,0.172700,0.172600,0.172600,0.172700,0.172800,0.172900,0.171600,0.171600,0.171500,0.172600,0.172700,0.171500,0.171500,0.171500,0.171500,0.171500,0.171400,0.171400,0.171300,0.171300,0.171100,0.170600,0.170500,0.170400,0.170300,0.170300,0.170300,0.170300,0.170100,0.170000,0.170400,0.170500,0.170200,0.170100,0.169700,0.169700,0.169700,0.169600,0.169600,0.169600,0.169700,0.170000,0.169200,0.169200,0.169200,0.169300,0.169400,0.167300,0.161600,0.158900,0.160300,0.166300,0.167300,0.169500,0.169500,0.169600,0.170900,0.170700,0.170600,0.169800,0.169700,0.169400,0.169400,0.169400,0.169400,0.169400,0.168800,0.168600,0.167700,0.166300,0.166200,0.166100,0.167900,0.168000,0.169100,0.169000,0.168600,0.168100,0.168000,0.167800,0.167800,0.167800,0.167900,0.167800,0.167800,0.167000,0.167000,0.166900,0.167000,0.167100,0.167000,0.167000,0.167000,0.167300,0.166700,0.166500,0.166500,0.166500,0.166500,0.166300,0.166200,0.165800,0.165600,0.165600,0.165600,1.000000,1.000000,1.000000,0.166600,0.166600,0.166900,0.166900,0.166800,0.166700,0.166700,1.000000,1.000000,1.000000,1.000000,0.165600,0.165400,0.165300,0.165300,0.165500,0.165600,0.165900,0.166000,0.165400,0.165000,0.165000,0.165100,1.000000,1.000000,1.000000,1.000000,0.208200,1.000000,1.000000,1.000000,1.000000,1.000000,1.000000,1.000000,1.000000,1.000000,1.000000,0.163200,0.163200,0.163200,1.000000,1.000000,1.000000,0.162600
0.080400,0.080500,0.080600,0.082500,0.082500,0.176700,0.176700,0.176700,0.178200,0.179400,0.179000,0.178000,0.177800,0.177600,0.177500,0.177000,0.176700,0.176100,0.176000,0.176100,0.176400,0.176600,0.176600,0.175200,0.175200,0.175300,0.175200,0.175200,0.175200,0.175100,0.174600,0.174400,0.174400,0.174700,0.175500,0.175700,0.175800,0.175600,0.175600,0.175500,0.175400,0.175300,0.175300,0.175200,0.175200,0.175100,0.175000,0.175000,0.174800,0.174700,0.174600,0.174600,0.174400,0.173600,0.173600,0.173600,0.173600,0.174600,0.174600,0.174800,0.174900,0.175000,0.175100,0.173900,0.173900,0.173900,0.173900,0.174000,0.174300,0.174700,0.174800,0.174900,0.174900,0.172900,0.172900,0.173000,0.172900,0.175000,0.174900,0.172900,0.172800,0.172700,0.172600,0.172600,0.171900,0.172200,0.172100,0.172000,0.172000,0.171500,0.171300,0.171100,0.170800,0.170700,0.170700,0.171800,0.171600,0.171600,0.171500,0.171500,0.171500,0.171600,0.171600,0.170700,0.170600,0.170600,0.170800,0.171500,0.171600,0.171600,0.171600,0.171500,0.169800,0.169600,0.169400,0.169400,0.169400,0.169500,0.169600,0.169700,0.169700,0.169800,0.170100,0.170300,0.170400,0.170400,0.170300,0.170300,0.170300,0.170300,0.170200,0.169000,0.169000,0.169000,0.169300,0.169700,0.169300,0.168300,0.168200,0.168200,0.168200,0.168200,0.168200,0.168800,0.169200,0.169200,0.169200,0.169200,0.168900,0.167300,0.164100,0.158900,0.158900,0.162400,0.165000,0.166300,0.167900,0.167900,0.167800,0.167700,0.167600,0.167500,0.167400,0.167300,0.167200,0.168100,0.168300,0.168200,0.168100,0.167100,0.166500,0.166200,0.166000,0.166000,0.165900,0.165900,0.166100,0.167300,0.167300,0.167300,0.167200,0.167000,0.166400,0.166200,0.166000,0.165800,0.165800,0.165900,0.165900,0.165000,0.164900,0.164900,0.164900,0.165000,0.165200,0.165200,1.000000,0.166400,0.165300,0.165000,0.165100,0.165400,0.165500,0.165700,0.165700,0.165600,0.165600,0.165600,0.165600,0.165500,0.165400,0.165400,0.165300,0.165300,0.165200,0.165200,0.165100,0.165100,1.000000,0.166900,1.000000,1.000000,0.163900,0.165100,0.165100,0.165100,0.165100,0.164900,0.164800,0.164700,0.164300,0.163100,0.163100,0.162900,1.000000,1.000000,0.206800,0.208200,0.208100,0.207100,0.206700,1.000000,1.000000,1.000000,1.000000,0.162000,0.162000,0.162100,0.162200,0.162200,0.161100,0.161100,1.000000,1.000000,1.000000,0.161700
0.080400,0.080400,0.080500,0.082500,0.174800,0.176600,0.176600,0.176300,0.176300,0.176500,0.176500,0.175900,0.175800,0.175800,0.175900,0.175900,0.176000,0.174700,0.174600,0.174700,0.174800,0.174900,0.175000,0.174900,0.174300,0.174600,0.175200,0.175200,0.175200,0.174400,0.174400,0.174400,0.174300,0.174300,0.174400,0.175300,0.175200,0.174700,0.174500,0.174400,0.174300,0.173800,0.173700,0.173600,0.173400,0.173400,0.173400,0.173400,0.173300,0.173300,0.172900,0.172900,0.172700,0.172100,0.171600,0.171400,0.171200,0.172300,0.172200,0.172200,0.172100,0.171800,0.171700,0.171600,0.171600,0.172200,0.173600,0.173700,0.173400,0.171900,0.171700,0.171400,0.171400,0.171400,0.171500,0.171600,0.171700,0.172800,0.172900,0.172900,0.172800,0.172600,0.172400,0.171700,0.171600,0.171600,0.171900,0.172000,0.171600,0.170800,0.170000,0.169900,0.169900,0.170400,0.170600,0.170700,0.170800,0.171000,0.171400,0.171400,0.171500,0.171500,0.170600,0.170600,0.170600,0.170600,0.170600,0.170600,0.170600,0.170500,0.170300,0.169800,0.169600,0.169500,0.169400,0.169300,0.169100,0.168000,0.168000,0.168000,0.168000,0.168600,0.169200,0.169300,0.169300,0.168200,0.168200,0.168400,0.168400,0.168300,0.168100,0.167800,0.167800,0.167800,0.168400,0.168800,0.168300,0.168200,0.168200,0.168200,0.168200,0.168100,0.166800,0.166700,0.166200,0.166200,0.166200,0.166100,0.166100,0.164300,0.161200,0.158800,0.158800,0.162400,0.164200,0.165000,0.166300,0.166000,0.165900,0.165900,0.166000,0.166000,0.166000,0.166100,0.166100,0.166900,0.167000,0.167000,0.167000,0.166200,0.165900,0.165900,0.165900,0.165900,0.164500,0.164600,0.165600,0.166000,0.166000,0.165800,0.165700,0.165500,0.165000,0.164900,0.164900,0.165000,0.164900,0.164700,0.164300,0.164200,0.163800,0.163600,0.163400,0.163300,0.162900,0.162900,0.163700,0.165000,0.164900,0.164900,0.164700,0.164400,0.163900,0.163800,0.163300,0.162400,0.162400,0.162400,0.162500,0.162500,0.162400,0.162300,0.162100,0.162000,0.161500,0.161000,0.160800,0.160300,0.160200,0.160200,1.000000,0.161900,0.161900,0.163100,0.164200,0.165000,0.164900,0.163200,0.163200,0.162800,0.161700,0.161600,0.161400,0.161400,0.161800,1.000000,0.206800,0.208200,0.207000,0.206500,0.206400,1.000000,1.000000,1.000000,0.162000,0.161900,0.161900,0.162100,0.162100,0.161100,0.159700,0.159700,0.161100,0.161100,0.161100,0.160900
0.080300,0.080400,0.081900,0.173000,0.174700,0.174900,0.175000,0.175100,0.175100,0.175500,0.175600,0.175700,0.174900,0.174800,0.174800,0.174700,0.174700,0.174700,0.173200,0.173200,0.173300,0.173500,0.173700,0.174000,0.174100,0.174300,0.174400,0.174300,0.174300,0.173000,0.173000,0.173000,0.173100,0.173200,0.174000,0.174300,0.174400,0.174500,0.174400,0.173300,0.173500,0.173700,0.173700,0.173600,0.172400,0.172100,0.172200,0.172300,0.172400,0.172600,0.172900,0.172700,0.172400,0.171600,0.171300,0.171100,0.170900,0.171000,0.171100,0.171300,0.171600,0.171600,0.169800,0.169800,0.170000,0.170100,0.172000,0.172100,0.172000,0.171600,0.171400,0.171300,0.171400,0.171400,0.171500,0.171500,0.171500,0.171500,0.171500,0.171700,0.172100,0.172200,0.171100,0.170400,0.170200,0.170200,0.171400,0.171400,0.171200,0.169900,0.169900,0.169900,0.169800,0.169800,0.169500,0.169400,0.169300,0.169300,0.169300,0.169400,0.171200,0.170800,0.170600,0.170600,0.170600,0.170600,0.169200,0.169200,0.169200,0.169000,0.168800,0.168600,0.168700,0.168800,0.169200,0.169200,0.167900,0.167200,0.167000,0.167000,0.168000,0.167300,0.167800,0.167900,0.168000,0.168100,0.166900,0.167000,0.167000,0.167000,0.167100,0.167000,0.167800,0.167800,0.167800,0.168100,0.168200,0.168200,0.166800,0.166800,0.166900,0.166800,0.166700,0.165900,0.165500,0.165100,0.164900,0.164800,0.164800,0.162600,0.159300,0.158800,0.158800,0.162400,0.162400,0.164200,0.165000,0.165000,0.165300,0.165800,0.166000,0.166000,0.164900,0.164900,0.164900,0.165200,0.165600,0.165600,0.165500,0.165100,0.164800,0.164700,0.164500,0.164500,0.164500,0.164500,0.164500,0.165200,0.164600,0.164200,0.164200,0.163900,0.163700,0.163500,0.163600,0.164800,0.164500,0.164400,0.164300,0.164000,0.163700,0.163600,0.163200,0.162800,0.162700,0.162600,0.163400,0.163500,0.163500,0.163400,0.163200,0.163300,0.163300,0.163100,0.162700,0.162200,0.162200,0.162300,0.162300,0.162200,0.161800,0.161700,0.160400,0.160000,0.159800,0.159600,0.159500,0.158900,0.160100,0.160100,0.160100,0.161200,0.161300,0.161500,0.163000,0.163200,0.163200,0.163200,0.162300,0.161600,0.160600,0.160100,0.160200,0.161200,0.161400,0.161600,1.000000,1.000000,1.000000,0.206400,1.000000,1.000000,1.000000,0.161100,0.161100,0.161200,0.161200,0.161500,0.160800,0.160000,0.159600,0.159500,0.159800,0.160600,0.160800,0.159600
0.081900,0.082000,0.082100,0.172900,0.173000,0.174600,0.174900,0.175100,0.174100,0.173900,0.173700,0.173400,0.173200,0.173200,0.173200,0.173200,0.173200,0.173200,0.172200,0.172000,0.171900,0.171800,0.171800,0.171900,0.172100,0.172300,0.172300,0.172200,0.172200,0.172100,0.171200,0.171000,0.172000,0.172200,0.172100,0.172100,0.172000,0.171900,0.171700,0.171000,0.171200,0.171200,0.171600,0.171600,0.171300,0.171300,0.171300,0.171900,0.171600,0.171600,0.171600,0.171600,0.171800,0.170600,0.170500,0.170400,0.170400,0.170700,0.170700,0.170700,0.170400,0.169700,0.168800,0.168700,0.168700,0.168800,0.170100,0.170700,0.170700,0.170800,0.170700,0.170300,0.170200,0.170200,0.170200,0.170200,0.170100,0.170000,0.169800,0.169800,0.170900,0.170900,0.170300,0.169600,0.169800,0.170100,0.170100,0.168700,0.168700,0.168700,0.169100,0.169700,0.168300,0.168000,0.166800,0.166900,0.167800,0.167800,0.168700,0.168000,0.167800,0.167800,0.167800,0.168000,0.168200,0.168000,0.167400,0.166600,0.166500,0.166600,0.167400,0.167500,0.168400,0.168400,0.167700,0.167400,0.167000,0.167000,0.167000,0.166900,0.166900,0.166700,0.166500,0.166400,0.166400,0.166600,0.166200,0.165800,0.165600,0.165600,0.165700,0.165700,0.166600,0.166500,0.166500,0.166500,0.166300,0.166300,0.166100,0.166000,0.165900,0.165900,0.165800,0.165700,0.165300,0.165000,0.164900,0.164800,0.164800,0.161200,0.158800,0.158800,0.158700,0.162300,0.162300,0.162300,0.164300,0.164600,0.165000,0.165100,0.163800,0.163600,0.162300,0.162400,0.163300,0.163600,0.163900,0.164000,0.162400,0.162300,0.162300,0.162300,0.162200,0.163200,0.163100,0.163100,0.163100,0.163200,0.163100,0.162900,0.162800,0.162800,0.162800,0.162800,0.162700,0.162700,0.163400,0.163400,0.163300,0.162400,0.162600,0.162700,0.162700,0.162700,0.162600,0.162500,0.162400,0.162300,0.162300,0.162500,0.162700,0.163000,0.163000,0.162700,0.162000,0.161900,0.162000,0.162200,0.162200,0.162000,0.161700,0.160600,0.159900,0.159800,0.159700,0.158900,0.158800,0.158800,0.158900,0.160000,0.160000,0.160200,0.160400,0.160600,0.159600,0.159600,0.160900,0.160900,0.161000,0.159700,0.159700,0.159700,0.159600,0.159600,0.159900,0.160100,1.000000,1.000000,1.000000,1.000000,1.000000,1.000000,0.159500,0.158300,0.159400,0.159300,0.159200,0.158600,0.158400,0.158400,0.159500,0.159400,0.159300,0.159200,0.160500,0.159100
0.082000,0.171300,0.172800,0.172000,0.172000,0.172100,0.172600,0.172500,0.171900,0.171900,0.171700,0.173000,0.173000,0.171200,0.171300,0.171400,0.171400,0.171400,0.171500,0.171600,0.171700,0.171700,0.171700,0.171600,0.171400,0.172200,0.172200,0.172100,0.172000,0.170900,0.170600,0.170600,0.170900,0.171000,0.171100,0.171200,0.171300,0.171200,0.171000,0.169200,0.169300,0.169200,0.170000,0.170000,0.170000,0.170000,0.170000,0.170100,0.170000,0.169900,0.170000,0.170200,0.170500,0.170100,0.169600,0.169800,0.168800,0.168800,0.168900,0.168800,0.168600,0.167300,0.167300,0.167200,0.167600,0.167800,0.167800,0.167800,0.167700,0.167800,0.167800,0.167700,0.167300,0.167200,0.167100,0.167100,0.167200,0.167300,0.167700,0.168300,0.168300,0.168200,0.168200,0.168200,0.168000,0.168000,0.167800,0.167600,0.167600,0.167600,0.167600,0.167700,0.167700,0.166500,0.165700,0.165700,0.166700,0.167500,0.167700,0.167800,0.167800,0.167800,0.167800,0.167900,0.167900,0.167700,0.165900,0.165700,0.165800,0.166300,0.166500,0.166900,0.167000,0.167000,0.167100,0.167000,0.166900,0.166900,0.166800,0.165400,0.165400,0.165300,0.165400,0.166100,0.165700,0.166200,0.164700,0.164800,0.163400,0.163400,0.164100,0.164600,0.164600,0.164600,0.163400,0.163300,0.163400,0.163500,0.163700,0.164200,0.164800,0.164600,0.164100,0.164000,0.163800,0.163800,0.163600,0.164400,0.164400,0.158800,0.158700,0.158700,0.158700,0.162200,0.162200,0.162200,0.162300,0.164200,0.164100,0.163900,0.162400,0.162000,0.161800,0.161700,0.162200,0.163400,0.163600,0.162300,0.161700,0.161400,0.161300,0.161300,0.161400,0.161600,0.161700,0.161900,0.161900,0.161900,0.162000,0.162200,0.162800,0.162800,0.162800,0.162700,0.162600,0.162500,0.162300,0.162300,0.162100,0.161100,0.161200,0.161100,0.162100,0.162500,0.161900,0.161000,0.161000,0.160900,0.160900,0.160900,0.161000,0.162000,0.162000,0.161000,0.160400,0.160000,0.159900,0.160200,0.160400,0.160500,0.159700,0.159600,0.159600,0.159500,0.158800,0.158700,0.158700,0.158700,0.158800,0.158900,0.159100,0.159700,0.159600,0.159600,0.159500,0.159500,0.159500,0.159400,0.159600,0.159600,0.159600,0.159600,0.159500,0.159500,0.159300,0.159000,1.000000,1.000000,1.000000,0.158600,0.159500,1.000000,1.000000,0.158300,0.158200,0.159200,0.158900,0.158400,0.157600,0.157500,0.157500,0.158300,0.159300,0.159200,0.159100,0.159100
0.170800,0.170900,0.171700,0.171100,0.171000,0.171800,0.172000,0.172000,0.170300,0.170300,0.170500,0.171500,0.171400,0.170500,0.170500,0.171100,0.171400,0.171400,0.171500,0.171500,0.171600,0.171600,0.171500,0.170200,0.170200,0.170200,0.170300,0.170400,0.170400,0.168800,0.168400,0.168300,0.168300,0.168300,0.168300,0.168300,0.168200,0.168300,0.168400,0.168400,0.168900,0.168800,0.168700,0.168500,0.168200,0.168100,0.168000,0.169300,0.169000,0.168800,0.168300,0.168100,0.168200,0.168400,0.168300,0.167800,0.167600,0.167600,0.167500,0.167500,0.167400,0.167300,0.167200,0.167000,0.166900,0.167200,0.167500,0.167600,0.166600,0.166600,0.166600,0.166400,0.166000,0.165600,0.165800,0.165900,0.166100,0.167000,0.167100,0.166900,0.166800,0.166700,0.166700,0.166700,0.166700,0.166600,0.166500,0.166300,0.166200,0.166200,0.166200,0.166200,0.165500,0.165500,0.165400,0.165500,0.165600,0.165600,0.164800,0.164800,0.165000,0.165500,0.165800,0.165800,0.165800,0.164900,0.164200,0.164200,0.164400,0.164400,0.164700,0.164900,0.165100,0.165200,0.164200,0.163200,0.163200,0.163200,0.163200,0.163200,0.163900,0.165100,0.165300,0.165300,0.165400,0.164700,0.163400,0.163400,0.163400,0.163400,0.163300,0.163100,0.163000,0.162900,0.162900,0.162200,0.162000,0.162200,0.162200,0.162500,0.163000,0.163100,0.163200,0.163100,0.162400,0.162400,0.162300,0.163100,0.163200,0.158800,0.158800,0.158800,0.158800,0.160900,0.162200,0.162200,0.162300,0.162400,0.162400,0.162200,0.162100,0.160500,0.160400,0.160400,0.160300,0.161500,0.161500,0.161400,0.161400,0.161300,0.161300,0.161300,0.161300,0.161300,0.161000,0.161000,0.160900,0.160900,0.161500,0.161600,0.161400,0.161200,0.161100,0.160500,0.160200,0.160200,0.160100,0.160000,0.160000,0.159800,0.159800,0.159700,0.160400,0.160900,0.160900,0.160000,0.159900,0.160000,0.160000,0.160000,0.160100,0.160200,0.160300,0.160300,0.160100,0.159300,0.159200,0.159000,0.158900,0.158800,0.158800,0.158900,0.159300,0.158800,0.158600,0.158500,0.158300,0.157800,0.157800,0.157800,0.157800,0.157900,0.157900,0.159600,0.159500,0.159400,0.159500,0.158800,0.159300,0.157500,0.157500,0.157600,0.157600,1.000000,0.157300,0.157100,1.000000,1.000000,1.000000,0.157400,0.157400,0.158100,1.000000,0.158200,0.158200,0.158200,0.158300,0.157500,0.156200,0.156100,0.156100,0.156200,0.156400,0.157200,0.158000,0.157800
0.169000,0.169100,0.169200,0.169000,0.169000,0.168800,0.168700,0.168400,0.167600,0.167600,0.167700,0.169100,0.169300,0.169200,0.169200,0.169200,0.169100,0.169100,0.169100,0.169000,0.168800,0.168600,0.168500,0.168500,0.168400,0.168500,0.168700,0.168800,0.168900,0.167500,0.167300,0.167200,0.167100,0.167100,0.167000,0.167000,0.167100,0.168200,0.168400,0.168400,0.168500,0.168200,0.168200,0.168100,0.168000,0.166900,0.166900,0.167500,0.168500,0.168300,0.167200,0.167000,0.167100,0.168000,0.167700,0.167700,0.165900,0.165800,0.165700,0.165700,0.165600,0.165300,0.165300,0.165300,0.165500,0.165200,0.165700,0.165800,0.164500,0.164400,0.164500,0.164600,0.164900,0.165000,0.165300,0.165500,0.165600,0.165700,0.165700,0.165700,0.165800,0.165800,0.165800,0.165800,0.165800,0.165700,0.164400,0.164300,0.164400,0.164500,0.164600,0.164500,0.164500,0.164600,0.164800,0.165000,0.164700,0.164500,0.163800,0.163700,0.163800,0.164000,0.164000,0.163900,0.163800,0.163800,0.163900,0.163900,0.164200,0.163900,0.163600,0.163500,0.163600,0.163700,0.163200,0.163200,0.163100,0.163200,0.163200,0.163100,0.163200,0.163300,0.165000,0.165100,0.164700,0.163400,0.163300,0.163400,0.163300,0.163300,0.162100,0.161600,0.161400,0.161300,0.161300,0.161200,0.161200,0.161200,0.161200,0.161200,0.161200,0.161200,0.161200,0.161300,0.161700,0.161700,0.161600,0.161600,0.160400,0.158800,0.158800,0.158700,0.158700,0.159000,0.160600,0.160700,0.160800,0.159000,0.158900,0.158900,0.159000,0.159100,0.159200,0.159400,0.159600,0.160100,0.160100,0.160100,0.160200,0.160500,0.160600,0.160600,0.160500,0.160300,0.160100,0.160200,0.160300,0.160400,0.160300,0.160200,0.160100,0.160100,0.160100,0.160000,0.158900,0.158900,0.158800,0.158800,0.159000,0.159100,0.159500,0.159600,0.159700,0.159600,0.159700,0.159200,0.158700,0.158700,0.157500,0.157700,0.157800,0.157800,0.157800,0.157700,0.157600,0.157600,0.157600,0.157500,0.157500,0.157400,0.157300,0.157200,0.157200,0.158600,0.158400,0.158000,0.157800,0.157800,0.157800,0.157800,0.157800,0.157900,0.157900,0.158000,0.157900,0.158000,0.157600,0.157500,0.157500,0.156300,0.156200,0.156200,0.156100,0.156000,0.156000,1.000000,0.156000,0.156000,0.156000,0.156000,0.156100,0.156200,0.157100,0.157100,0.157100,0.157200,0.157300,0.156500,0.156200,0.154800,0.154700,0.154600,0.154600,0.156000,0.156700,0.156600
0.168300,0.168200,0.168000,0.167700,0.167600,0.167400,0.167400,0.167400,0.167400,0.167600,0.167600,0.167700,0.169200,0.169200,0.169200,0.169100,0.169100,0.168100,0.167800,0.167700,0.167600,0.167400,0.167300,0.167200,0.167100,0.167100,0.168300,0.168300,0.168200,0.167200,0.167200,0.167000,0.167000,0.166900,0.166700,0.166700,0.166800,0.167100,0.167100,0.165200,0.164700,0.164600,0.164600,0.164700,0.166000,0.166600,0.166700,0.166600,0.166300,0.166300,0.166300,0.166200,0.166200,0.166200,0.166000,0.165900,0.165800,0.165600,0.165200,0.165000,0.165000,0.163800,0.163700,0.163700,0.163700,0.163700,0.163900,0.164300,0.164300,0.163600,0.163700,0.164200,0.164700,0.164900,0.165000,0.165000,0.164800,0.164800,0.164800,0.164800,0.164800,0.164800,0.164700,0.164600,0.164500,0.164400,0.164300,0.163300,0.163200,0.163200,0.163500,0.163700,0.164100,0.164500,0.164700,0.164700,0.162900,0.162800,0.162600,0.162200,0.162100,0.161900,0.161900,0.162500,0.163100,0.163800,0.163800,0.163800,0.163200,0.162400,0.162300,0.162200,0.162800,0.163000,0.163100,0.163100,0.161800,0.161800,0.161200,0.160600,0.160600,0.160900,0.162200,0.162200,0.162200,0.162300,0.162300,0.162300,0.162200,0.162100,0.161900,0.161200,0.161100,0.161100,0.161200,0.161200,0.161200,0.161200,0.161200,0.160200,0.159700,0.159700,0.159700,0.159800,0.161300,0.161400,0.161400,0.160500,0.158600,0.157000,0.157000,0.157100,0.158200,0.158600,0.159200,0.159200,0.159100,0.158900,0.158900,0.158900,0.159000,0.159100,0.159200,0.159400,0.159500,0.159900,0.160000,0.159400,0.158900,0.159100,0.159500,0.159800,0.159400,0.159300,0.159100,0.159000,0.158800,0.158800,0.158900,0.158900,0.158800,0.158300,0.158200,0.157800,0.156900,0.157200,0.157400,0.157500,0.157600,0.157600,0.157700,0.158000,0.158100,0.158200,0.157500,0.156700,0.156000,0.155700,0.156200,0.156700,0.156800,0.156700,0.156600,0.156600,0.156800,0.157500,0.157500,0.157500,0.157400,0.157400,0.156900,0.156700,0.156600,0.157400,0.157500,0.157600,0.156900,0.156500,0.156400,0.156900,0.157400,0.157500,0.156200,0.156300,0.156200,0.157300,0.157500,0.157400,0.156400,0.156200,0.156200,0.155400,0.155300,0.155300,0.155800,0.155900,0.155700,0.155400,0.155900,0.156000,0.156100,0.156100,0.156200,0.156200,0.155500,0.155400,0.155300,0.155100,0.154700,0.154700,0.154600,0.154600,0.154400,0.154200,0.154000,0.154100
0.167200,0.167100,0.167000,0.166500,0.166300,0.166200,0.166200,0.166300,0.166400,0.167000,0.167500,0.167600,0.167700,0.167800,0.167700,0.167600,0.167500,0.167500,0.167500,0.167500,0.167300,0.166300,0.166300,0.166300,0.166400,0.166900,0.167100,0.167100,0.167200,0.167100,0.167100,0.167000,0.166800,0.166700,0.166600,0.166500,0.166100,0.165800,0.165600,0.164700,0.164600,0.164600,0.164600,0.164600,0.164700,0.166100,0.166400,0.166300,0.165200,0.165200,0.165200,0.165200,0.165800,0.165800,0.165800,0.164600,0.164200,0.164100,0.164000,0.163900,0.163900,0.163700,0.163700,0.163600,0.163600,0.163500,0.163400,0.163300,0.163200,0.163100,0.162900,0.163400,0.164400,0.164100,0.163800,0.163800,0.163600,0.163600,0.163300,0.163200,0.163100,0.163100,0.163100,0.163100,0.163200,0.163200,0.163300,0.163200,0.163200,0.163100,0.163100,0.163600,0.163700,0.164000,0.163200,0.163100,0.162900,0.162800,0.162100,0.162100,0.162100,0.161900,0.161800,0.161700,0.161600,0.162700,0.162400,0.161600,0.161600,0.161700,0.161800,0.161900,0.162000,0.162000,0.161900,0.161000,0.160400,0.160400,0.160300,0.160200,0.160300,0.160400,0.160900,0.160900,0.161000,0.161000,0.160900,0.160900,0.160700,0.160700,0.160700,0.160700,0.160900,0.161000,0.161100,0.161200,0.161200,0.161100,0.159800,0.159700,0.159700,0.159600,0.159600,0.159500,0.159400,0.159300,0.159200,0.158500,0.157400,0.156800,0.156900,0.157000,0.157100,0.158400,0.158500,0.159000,0.158900,0.158900,0.158900,0.158900,0.158900,0.157800,0.157800,0.158300,0.159100,0.159900,0.158500,0.158300,0.157800,0.157800,0.159000,0.159300,0.159300,0.159100,0.157500,0.157400,0.157400,0.157400,0.157500,0.157600,0.157900,0.157800,0.157600,0.156500,0.156500,0.156800,0.157200,0.157400,0.157600,0.157400,0.157200,0.157300,0.157600,0.157600,0.156700,0.156500,0.155400,0.155300,0.155200,0.155200,0.155200,0.155200,0.155400,0.156600,0.156600,0.156800,0.157500,0.157400,0.157400,0.157300,0.156500,0.156400,0.156400,0.156500,0.156600,0.156600,0.156500,0.156400,0.156300,0.156100,0.155700,0.155600,0.155400,0.154800,0.155000,0.156100,0.156000,0.155900,0.155300,0.155200,0.155200,0.155200,0.155200,0.155000,0.154800,0.154700,0.154500,0.154000,0.154000,0.155800,0.155900,0.155200,0.154500,0.154400,0.154100,0.154000,0.154000,0.154100,0.154500,0.154600,0.154600,0.154500,0.154200,0.153900,0.152900,0.152700
0.165700,0.165700,0.165700,0.164400,0.164700,0.165800,0.166100,0.165800,0.164200,0.164100,0.164100,0.164200,0.165100,0.165000,0.164800,0.163600,0.163500,0.163400,0.163600,0.165400,0.165300,0.165000,0.165000,0.165000,0.165000,0.165100,0.165100,0.165100,0.165200,0.165300,0.165400,0.165300,0.165300,0.165400,0.165500,0.165800,0.164600,0.163800,0.163300,0.163300,0.163400,0.163500,0.163600,0.163600,0.163500,0.164800,0.164600,0.164600,0.163700,0.163200,0.163100,0.163200,0.163400,0.163400,0.162900,0.162700,0.162600,0.162600,0.162500,0.162400,0.162400,0.162400,0.162700,0.163300,0.163400,0.162100,0.162100,0.162100,0.162200,0.162300,0.161200,0.162400,0.163300,0.162400,0.162200,0.162000,0.161800,0.161600,0.161300,0.161200,0.161200,0.161200,0.161200,0.161200,0.161200,0.161300,0.161400,0.161400,0.160600,0.160400,0.160400,0.161100,0.161700,0.161800,0.160400,0.160400,0.160500,0.160600,0.160800,0.160800,0.160900,0.160900,0.160900,0.160900,0.161300,0.161400,0.161400,0.160300,0.160200,0.160200,0.160200,0.160300,0.160400,0.160300,0.160000,0.159600,0.159500,0.160200,0.160300,0.160200,0.160100,0.159600,0.159500,0.159400,0.159300,0.159300,0.159400,0.159500,0.159300,0.159200,0.159200,0.159200,0.159400,0.159500,0.159600,0.159800,0.158100,0.158100,0.158100,0.158100,0.159100,0.159500,0.159300,0.157600,0.157600,0.157600,0.157500,0.155500,0.155400,0.155300,0.156800,0.156800,0.157000,0.157400,0.158300,0.158500,0.157400,0.157400,0.157400,0.157400,0.157200,0.157000,0.156900,0.156900,0.157000,0.157200,0.157400,0.157500,0.157100,0.156900,0.157500,0.157700,0.157700,0.157600,0.157400,0.156600,0.156500,0.156500,0.156600,0.156600,0.156500,0.156500,0.156500,0.156500,0.156500,0.156500,0.156800,0.157200,0.157400,0.156800,0.156800,0.157000,0.157000,0.156900,0.156500,0.156000,0.155200,0.155200,0.155100,0.155100,0.154800,0.154500,0.154700,0.155300,0.155300,0.155700,0.155700,0.155700,0.155800,0.155800,0.154800,0.154800,0.154800,0.153500,0.153500,0.153500,0.154700,0.154800,0.155100,0.155300,0.155400,0.155500,0.154500,0.154200,0.153900,0.153800,0.153800,0.153800,0.153800,0.153900,0.154000,0.154000,0.154200,0.154500,0.154600,0.154400,0.153900,0.153800,0.153900,0.153900,0.153800,0.153800,0.152600,0.152600,0.152400,0.152300,0.152300,0.152200,0.153600,0.153600,0.153700,0.153700,0.153500,0.153300,0.152100,0.152200
