0.104700,0.104800,0.105000,1.000000,1.000000,1.000000,0.100800,0.099400,1.000000,0.099700,0.102500,1.000000,1.000000,1.000000,0.100200,0.100200,0.102400,1.000000,1.000000,1.000000,1.000000,0.121700,0.121800,0.122800,0.125700,0.126000,0.127100,0.127800,0.129400,0.130700,0.131900,0.132000,0.132000,0.131800,0.129900,0.127800,0.126500,1.000000,1.000000,1.000000,0.515000,0.513100,0.511000,1.000000,1.000000,1.000000,1.000000,0.510000,0.510100,0.510800,0.510800,0.508600,0.507100,0.507000,0.507000,0.507000,0.506800,0.506800,0.506700,1.000000,1.000000,1.000000,0.507400,0.507600,0.507500,0.508800,0.508900,0.507400,0.506500,0.505600,0.505600,0.505600,0.505600,0.505400,0.505300,0.505300,0.505300,0.505200,0.505000,0.504700,0.504500,0.503400,0.502000,0.501900,0.501900,0.501900,0.502800,0.504200,0.504200,0.504100,0.502800,0.502700,0.502600,0.502600,0.501600,0.500600,0.500600,0.500600,0.500500,0.500400,0.499600,0.499400,0.499300,0.499300,0.499200,0.499000,0.498200,0.498100,0.497400,0.497200,0.497100,0.497000,0.496200,0.496200,0.496400,0.496800,0.496800,0.496100,0.495800,0.495800,0.495700,0.495600,0.494600,0.494600,0.494500,0.494500,0.494600,0.494700,0.494800,0.494800,0.494800,0.494800,0.494800,1.000000,0.453400,0.453300,0.451700,0.451700,0.451700,0.451700,1.000000,1.000000,0.490100,0.490100,0.491400,0.490200,0.488900,0.488900,0.488900,0.490600,0.490500,0.490400,0.490300,0.488600,0.488400,0.488300,0.488100,0.488000,0.488000,1.000000,0.448500,0.447700,0.446600,0.445900,0.445900,0.445800,0.445800,0.445800,0.445800,1.000000,0.483000,0.482900,0.484400,0.484500,0.484400,0.484400,0.484300,0.484200,0.484200,0.484200,0.482500,0.479900,0.479900,0.479900,0.479800,0.482900,0.483000,0.483000,1.000000,0.443700,0.443600,0.443000,0.442000,0.442000,0.442000,0.442100,0.442100,0.441800,0.441700,0.441600,0.441600,1.000000,0.480400,0.480400,0.479000,0.478100,1.000000,1.000000,0.448300,0.448300,0.448200,0.448100,0.446700,0.445600,0.445700,0.446800,0.447000,0.447100,0.445900,0.445900,0.443300,0.439300,0.437100,0.437100,0.437000,0.437000,0.436900,0.436800,0.436800,0.434200,0.434200,0.434200,1.000000,1.000000,1.000000,1.000000,0.477400,1.000000,1.000000,1.000000,0.454600,0.454600,1.000000,1.000000,0.449000,0.448900,0.447600,0.445500,0.445500,0.447600,0.450500,0.450500,0.434700,0.433200,0.433200,1.000000
0.104700,0.104800,0.104900,0.105100,0.109300,0.109300,1.000000,0.100900,0.101700,0.101800,0.102500,1.000000,1.000000,0.100300,0.100200,0.100200,0.100100,0.101900,1.000000,1.000000,1.000000,0.122200,0.122700,0.124100,0.126300,0.127000,0.127100,0.128200,0.129700,0.130700,0.131800,0.132000,0.132000,0.131600,0.129800,0.128100,1.000000,1.000000,1.000000,1.000000,0.515000,0.513200,0.511400,0.511400,1.000000,1.000000,1.000000,1.000000,0.510600,0.510700,0.510800,0.507100,0.507100,0.507100,0.507100,0.507100,0.507100,0.507100,0.508600,0.508600,1.000000,1.000000,0.507600,0.507700,0.508600,0.508800,0.508900,0.508800,0.507400,0.505700,0.505700,0.505700,0.505600,0.505500,0.505400,0.505400,0.505300,0.505200,0.505000,0.504500,0.503200,0.502000,0.502000,0.501900,0.501900,0.501900,0.501900,0.504200,0.503100,0.502900,0.502800,0.502700,0.502600,0.502600,0.500600,0.500600,0.500600,0.500500,0.500500,0.500400,0.499700,0.499600,0.499600,0.499400,0.499300,0.499200,0.499200,0.499200,0.497900,0.497600,0.497300,0.497200,0.497100,0.497000,0.496900,0.496800,0.496800,0.496200,0.496000,0.496000,0.495900,0.495900,0.495900,0.494600,0.494600,0.494600,0.494700,0.494800,0.494900,0.494800,0.494800,0.494800,0.494800,1.000000,0.453300,0.453300,0.453200,0.451800,0.451800,0.451800,1.000000,1.000000,0.490000,0.490100,0.490100,0.490100,0.488900,0.488900,0.488900,0.490600,0.490500,0.490400,0.488600,0.488600,0.487000,0.485400,0.487200,0.487900,0.487900,1.000000,0.448600,0.448600,0.447300,0.446000,0.445900,0.445800,0.445800,0.445800,1.000000,1.000000,0.484400,0.484400,0.484400,0.484400,0.484400,0.484400,0.484300,0.484300,0.484400,0.485000,0.485000,0.479900,0.479900,0.479900,0.479900,0.480800,0.482900,0.482900,1.000000,0.443800,0.443800,0.443900,0.442500,0.442200,0.442300,0.442400,0.442500,0.442100,0.441900,0.441900,0.441900,1.000000,1.000000,1.000000,0.479200,1.000000,1.000000,1.000000,1.000000,0.448300,0.448200,0.448200,0.446800,0.446700,0.446700,0.446900,0.447000,0.447200,0.446100,0.444400,0.443200,0.439600,0.437000,0.436700,0.436500,0.436500,0.436700,0.436700,0.436700,0.435000,0.434200,0.434200,0.434200,1.000000,1.000000,1.000000,1.000000,1.000000,1.000000,1.000000,0.454600,0.454700,0.451000,0.449200,1.000000,0.449000,1.000000,0.447600,0.447600,0.447600,0.449100,0.449100,0.434800,0.433300,0.433300,1.000000
0.104800,0.104900,0.105000,0.107000,0.108700,0.109300,0.109400,0.103500,1.000000,0.102400,1.000000,1.000000,1.000000,1.000000,0.100200,0.100100,1.000000,1.000000,0.107500,1.000000,1.000000,1.000000,1.000000,0.126100,0.126900,0.127100,0.127200,0.128200,0.129700,0.130900,0.131800,0.132000,0.131600,0.129800,0.128100,0.128000,1.000000,1.000000,1.000000,0.515000,0.515000,0.513400,0.511700,0.511700,0.511800,1.000000,1.000000,0.510600,0.510600,0.510600,0.509800,0.508400,0.507100,0.507100,0.507200,0.507200,0.507200,0.507300,0.508600,0.508600,1.000000,1.000000,0.507700,0.507700,0.508200,0.508600,0.508700,0.508800,0.507600,0.505900,0.505800,0.505800,0.505700,0.505600,0.505400,0.505400,0.505300,0.505300,0.504200,0.504000,0.503300,0.502900,0.502000,0.502000,0.502000,0.502000,0.502000,0.503400,0.503100,0.502900,0.502800,0.502700,0.502600,0.502600,0.500600,0.500600,0.500500,0.500500,0.500300,0.500000,0.499900,0.499800,0.499800,0.500200,0.499300,0.499300,0.499300,0.499200,0.498600,0.498000,0.497500,0.497600,0.497900,0.497800,0.497100,0.496800,0.496800,0.496200,0.496000,0.496000,0.496000,0.496000,0.495900,0.495900,0.494600,0.494600,0.494800,0.495200,0.494900,0.494900,0.494800,0.494800,0.494800,1.000000,0.453200,0.453200,0.453100,0.451900,0.451900,0.451900,1.000000,1.000000,0.490100,0.490100,0.490100,0.490000,0.489000,0.489000,0.490600,0.490600,0.490500,0.490500,0.489600,0.488700,0.485400,0.485400,0.485400,0.487500,0.487700,1.000000,0.448700,0.448600,0.448600,0.447000,0.446000,0.445900,0.445800,0.445800,0.445800,1.000000,0.484400,0.484400,0.483600,0.481900,0.484200,0.484300,0.484300,0.484400,0.484500,0.484700,0.484900,0.483100,0.480000,0.479900,0.479800,0.480800,0.482800,0.482800,1.000000,0.443800,0.443900,0.443900,0.442700,0.442500,0.442500,0.442600,0.442600,0.442200,0.442100,0.442000,0.442000,1.000000,1.000000,1.000000,1.000000,1.000000,1.000000,1.000000,1.000000,1.000000,1.000000,0.447000,0.447000,0.446900,0.446900,0.447100,0.447200,0.447300,0.446200,0.444400,0.443200,0.439900,0.436800,0.436500,0.436400,0.436400,0.436500,0.436600,0.435200,0.435100,0.435100,0.435100,1.000000,1.000000,1.000000,1.000000,1.000000,1.000000,1.000000,1.000000,1.000000,0.452800,0.451000,0.449700,0.449500,0.449100,0.448800,0.447600,0.447600,0.449000,0.449000,0.449000,0.434800,0.433200,0.432300,1.000000
0.104800,0.105200,0.106800,0.107400,0.108300,0.109400,0.109500,0.109500,0.102900,0.102400,0.104500,0.104600,1.000000,1.000000,1.000000,1.000000,0.101900,0.101900,1.000000,0.109500,1.000000,1.000000,1.000000,1.000000,1.000000,0.127200,0.127200,0.128400,0.129900,0.131600,0.131800,0.131800,0.130000,0.128100,0.128100,0.128000,1.000000,0.514900,0.514900,0.514900,0.514900,0.513600,0.512100,1.000000,1.000000,0.508300,1.000000,0.510600,0.510500,0.510500,0.509900,0.509400,0.509400,0.508400,0.508400,0.508500,0.507400,0.508700,0.508700,1.000000,1.000000,1.000000,0.507600,0.507800,0.508300,0.508500,0.508600,0.508600,0.508000,0.506000,0.506000,0.506000,0.506000,0.506000,0.505400,0.505400,0.505400,0.504100,0.504000,0.504000,0.503700,0.503300,0.502800,0.502000,0.502000,0.502000,0.502100,0.503300,0.503100,0.503000,0.502700,0.502600,0.501700,0.501600,0.501500,0.500600,0.500400,0.500400,0.500200,0.500000,0.500000,0.500000,0.500200,0.500300,0.500300,0.499400,0.499300,0.499300,0.499100,0.499100,0.498600,0.498400,0.498200,0.498100,0.498100,0.498000,0.497900,0.497800,0.496900,0.496100,0.496100,0.496800,0.496600,0.496000,0.495900,0.495800,0.495600,0.495500,0.495300,0.495000,0.494900,0.494800,0.494800,0.494800,1.000000,0.453200,0.453100,0.452700,0.452000,1.000000,1.000000,0.493700,0.490200,0.490100,0.490000,0.489200,0.489000,0.489000,0.489000,0.489000,0.489000,0.490400,0.490400,0.488700,0.487200,0.485400,0.487300,0.487500,0.487500,1.000000,0.448600,0.448600,0.448500,0.448300,0.447000,0.445900,0.445900,0.445800,0.445800,1.000000,1.000000,0.483600,0.481900,0.481900,0.481900,0.484300,0.484500,0.484600,0.484800,0.484800,0.484900,0.484900,0.484900,0.483000,0.482900,0.482900,0.482800,0.482800,1.000000,0.443800,0.443900,0.444100,0.444100,0.442800,0.442800,0.442800,0.442700,0.442400,0.442300,0.442200,0.442200,1.000000,1.000000,1.000000,1.000000,1.000000,1.000000,1.000000,1.000000,1.000000,1.000000,0.447100,0.447100,0.447000,0.447100,0.447300,0.447300,0.447400,0.446200,0.444600,0.443200,0.439900,0.436800,0.436500,0.436300,0.436200,0.435400,0.435300,0.435200,0.435200,0.435100,0.435200,1.000000,1.000000,1.000000,1.000000,1.000000,1.000000,1.000000,1.000000,0.453100,0.451300,0.451100,0.449700,1.000000,1.000000,1.000000,0.447600,0.447500,1.000000,1.000000,0.446800,0.436800,0.432500,0.432400,0.431100
0.105400,0.106700,0.107000,0.107900,0.108200,0.109500,0.109500,0.109600,0.109700,0.104300,0.104500,0.104600,1.000000,1.000000,1.000000,1.000000,1.000000,1.000000,1.000000,1.000000,1.000000,1.000000,1.000000,1.000000,1.000000,0.127200,0.127200,0.128500,0.130000,0.131600,0.131700,0.131700,0.128200,0.124900,0.125000,0.128000,1.000000,1.000000,0.514900,0.514900,0.514900,0.513700,0.512300,0.512200,0.512100,1.000000,0.510600,0.510600,0.510500,0.510500,0.510300,0.509600,0.509600,0.509500,0.508500,0.508600,0.508600,0.508700,0.508700,1.000000,1.000000,1.000000,1.000000,0.508200,0.508400,0.508500,0.508600,0.508500,0.508500,0.506200,0.506100,0.506100,0.506100,0.506200,0.506200,0.505400,0.505400,0.504100,0.504000,0.504000,0.503800,0.503700,0.503600,0.502100,0.502100,0.502200,0.502200,0.503300,0.503200,0.503100,0.502600,0.502500,0.501700,0.501600,0.501600,0.501600,0.500400,0.500300,0.500200,0.500100,0.500100,0.500200,0.500200,0.500300,0.500400,0.500300,0.499300,0.499300,0.499200,0.499100,0.498800,0.498500,0.498300,0.498200,0.498200,0.498100,0.498900,0.497800,0.497800,0.497800,0.497800,0.497700,0.496700,0.496300,0.495900,0.495800,0.495600,0.495500,0.495400,0.495300,0.495000,0.494900,0.494900,0.494800,1.000000,0.453100,0.452800,0.452400,0.452200,1.000000,1.000000,0.493700,0.490200,0.490200,0.489100,0.489000,0.489000,0.488900,0.488900,0.489000,0.489000,0.490400,0.490400,0.489900,0.487500,0.487400,0.487400,0.487500,0.487500,1.000000,0.448600,0.448500,0.448400,0.448300,0.448200,0.445900,0.445900,0.445900,0.445800,1.000000,1.000000,0.483600,0.481900,0.481900,0.481900,0.484600,0.484700,0.484800,0.484900,0.484900,0.485000,0.485000,0.485000,0.484900,0.484000,0.483900,0.483100,0.483100,1.000000,0.443700,0.443900,0.444100,0.444100,0.442900,0.442900,0.442900,0.442800,0.442500,0.442400,0.442300,0.442300,1.000000,1.000000,1.000000,1.000000,1.000000,1.000000,1.000000,1.000000,1.000000,1.000000,0.447200,0.447200,0.447200,0.447200,0.447400,0.447400,0.447400,0.447400,0.444700,0.443200,0.440000,0.437600,0.436600,0.436300,0.436200,0.435400,0.435300,0.435200,0.435200,0.435200,1.000000,0.436400,1.000000,1.000000,1.000000,1.000000,1.000000,1.000000,1.000000,1.000000,1.000000,0.449900,1.000000,1.000000,1.000000,0.447500,0.447500,0.447600,1.000000,1.000000,1.000000,1.000000,0.432500,0.432400,1.000000
0.106700,0.107000,0.107100,0.108000,0.108100,0.109500,0.109500,0.109600,0.109800,0.108500,0.107700,0.108600,0.110600,1.000000,1.000000,1.000000,1.000000,1.000000,1.000000,1.000000,0.107600,1.000000,0.106200,1.000000,1.000000,0.127200,0.127200,0.128500,0.130400,0.131600,0.131600,0.130000,0.122200,0.122200,0.122200,0.125000,1.000000,0.514700,0.514700,0.514700,0.514700,0.512500,0.512400,0.512400,0.512300,0.510600,0.510600,0.512200,0.512100,0.510500,0.510400,0.509800,0.509700,0.509600,0.508600,0.508600,0.508600,0.508700,0.508600,1.000000,1.000000,1.000000,1.000000,0.508400,0.508500,0.508600,0.508700,0.508600,0.508500,0.506900,0.506400,0.506400,0.506400,0.506400,0.506400,0.506600,0.506800,0.506600,0.504000,0.504000,0.503900,0.503900,0.503900,0.503800,0.502300,0.502300,0.502400,0.502400,0.503300,0.503400,0.503400,0.502200,0.501800,0.501800,0.501700,0.501600,0.500400,0.500300,0.500200,0.500200,0.500200,0.500200,0.500300,0.500400,0.500400,0.500400,0.499400,0.499300,0.499300,0.499100,0.498900,0.498700,0.498500,0.498400,0.498300,0.498900,0.498900,0.497900,0.497800,0.497800,0.497800,0.497800,0.497600,0.496100,0.495900,0.495600,0.495500,0.495500,0.495500,0.495400,0.495300,0.495000,0.494900,0.494900,1.000000,0.453100,0.452600,0.452500,0.452400,1.000000,1.000000,0.492700,0.490300,0.489800,0.489000,0.487000,0.487000,1.000000,0.488900,0.489000,0.489000,0.489000,0.490300,0.488800,0.487500,0.487500,0.487500,0.487500,1.000000,1.000000,0.448500,0.448500,0.448400,0.448200,0.448200,0.448000,0.447900,0.445900,0.445900,1.000000,0.484300,0.484300,0.483800,0.481900,0.484200,0.484800,0.484900,0.484900,0.485000,0.485000,0.485000,0.485000,0.485000,0.485000,0.484400,0.484200,0.484400,1.000000,1.000000,0.443800,0.443900,0.444000,0.444100,0.444000,0.443000,0.443000,0.443000,0.442700,0.442500,0.442400,0.442400,0.443700,1.000000,1.000000,1.000000,1.000000,1.000000,1.000000,1.000000,0.448300,1.000000,0.449400,0.449200,0.447500,0.447500,0.447500,0.447400,0.447400,0.447400,0.447300,0.446200,0.440100,0.439100,0.438200,0.437200,0.436400,0.436200,0.435400,0.435400,0.436600,0.436500,0.436500,0.436400,1.000000,1.000000,1.000000,1.000000,1.000000,1.000000,1.000000,1.000000,1.000000,1.000000,1.000000,1.000000,1.000000,0.445800,0.445800,0.445900,0.446000,0.447600,0.448900,0.433900,0.432500,0.432500,0.431200
0.106800,0.106900,0.107000,0.108200,0.109000,0.109600,0.110100,0.110400,0.111000,0.111200,0.112600,0.112700,0.113400,1.000000,1.000000,1.000000,1.000000,1.000000,1.000000,1.000000,1.000000,1.000000,1.000000,1.000000,1.000000,1.000000,1.000000,1.000000,0.131400,0.131600,0.131600,0.127300,0.122100,0.122100,0.122200,1.000000,1.000000,0.514600,0.514600,0.514600,0.514600,0.512600,0.512500,0.512500,0.512400,1.000000,1.000000,0.512200,0.512100,0.512100,0.512000,0.510600,0.510600,0.509600,0.508800,0.508700,0.508700,0.508600,0.508500,0.508000,1.000000,1.000000,0.506400,0.508400,0.508600,0.508700,0.508800,0.508600,0.508600,0.507200,0.506600,0.506500,0.506500,0.506600,0.506800,0.507000,0.507000,0.507100,0.505300,0.504000,0.504000,0.504000,0.503900,0.503900,0.503900,0.502400,0.502400,0.502400,0.502500,0.503400,0.503400,0.503400,0.502100,0.502200,0.502400,0.502500,0.501300,0.500400,0.500300,0.500300,0.500300,0.500300,0.500300,0.500400,0.500400,0.500600,0.500600,0.500700,0.500300,0.499300,0.499200,0.499000,0.498900,0.498900,0.499000,0.499000,0.498900,0.498000,0.497900,0.497900,0.497900,0.497900,0.497900,0.496200,0.496000,0.495400,0.495400,0.495400,0.495500,0.495400,0.495400,0.494900,0.494900,0.494800,0.453200,0.453100,0.452600,0.452500,0.452500,0.452500,1.000000,0.492700,0.485300,0.485300,0.487000,1.000000,1.000000,1.000000,0.488900,0.488900,0.489000,0.489000,0.488000,0.487400,0.487400,0.487400,0.487500,0.487500,1.000000,0.449500,0.448500,0.448400,0.448300,0.448200,0.448100,0.448000,0.448000,0.448000,0.448000,1.000000,0.484300,0.484300,0.484300,0.484400,0.484900,0.484900,0.485000,0.485000,1.000000,1.000000,1.000000,0.485200,0.485100,0.485000,0.484900,0.484800,0.484600,1.000000,0.443600,0.443700,0.443800,0.443900,0.444000,0.444000,0.443300,0.443200,0.443200,0.443100,0.443000,0.442700,0.442600,0.443600,0.443600,1.000000,1.000000,1.000000,1.000000,1.000000,1.000000,1.000000,0.449600,0.450600,0.450600,0.447600,0.447600,0.447500,0.447400,0.447400,0.447300,0.447300,0.446200,0.440100,0.439100,0.438200,0.437400,0.437400,0.437300,0.436900,0.436800,0.436700,0.436600,0.436700,0.436700,1.000000,1.000000,1.000000,1.000000,1.000000,1.000000,1.000000,1.000000,1.000000,1.000000,1.000000,1.000000,1.000000,1.000000,1.000000,0.445800,0.447600,0.447600,1.000000,0.432600,0.432600,0.432600,0.432600
0.106800,0.106900,0.106900,0.108600,0.109200,0.110100,0.110400,0.110500,0.111200,0.111300,0.112800,0.113700,0.114100,0.114300,1.000000,1.000000,1.000000,1.000000,1.000000,1.000000,1.000000,1.000000,1.000000,1.000000,1.000000,1.000000,1.000000,1.000000,1.000000,1.000000,0.123500,0.121400,0.122100,0.122100,1.000000,1.000000,1.000000,0.513700,0.514200,0.514400,0.514300,0.512600,0.512500,0.512500,0.512500,1.000000,1.000000,0.512000,0.512000,0.512000,0.510900,0.510800,0.510800,0.510600,0.509400,0.509400,0.509500,0.509600,0.508400,0.508200,1.000000,1.000000,0.509200,1.000000,0.509000,0.509000,0.509100,0.509200,0.509100,0.507400,0.507300,0.507200,0.507100,0.507100,0.507200,0.507200,0.507200,0.508100,0.507200,0.505400,0.504100,0.504100,0.504100,0.504000,0.504000,0.503900,0.503900,0.502500,0.502500,0.502600,0.503400,0.503400,0.503400,0.502500,0.502500,0.502600,0.502400,0.500800,0.500400,0.500300,0.500300,0.500300,0.500300,0.500400,0.500500,0.500600,0.500700,0.500800,0.501000,0.499700,0.499500,0.499300,0.499100,0.499100,0.499000,0.498800,0.498400,0.498000,0.498000,0.498000,0.498000,0.498000,0.498100,0.496500,0.496400,0.495400,0.495400,0.495400,0.495500,0.495500,0.495400,0.494700,0.494600,1.000000,1.000000,0.453200,0.453100,0.452800,0.452600,0.452600,1.000000,0.479500,1.000000,0.483500,1.000000,1.000000,1.000000,1.000000,1.000000,1.000000,1.000000,1.000000,1.000000,1.000000,0.487400,0.487400,0.487500,0.487600,1.000000,1.000000,0.448500,0.448400,0.448300,0.448200,0.448100,0.448000,0.448000,0.448000,0.448000,1.000000,1.000000,0.484300,0.484300,0.484500,0.484900,0.484900,1.000000,1.000000,1.000000,1.000000,1.000000,1.000000,0.483400,0.483400,0.485000,0.484900,1.000000,1.000000,0.443500,0.443600,0.443700,0.443800,0.443900,0.443900,0.443900,0.443500,0.443400,0.443300,0.443300,0.443300,0.443300,0.443500,0.444700,1.000000,1.000000,1.000000,1.000000,1.000000,1.000000,1.000000,1.000000,0.450600,0.453100,0.450600,0.450600,0.447600,0.447400,0.447300,0.447300,0.447300,1.000000,0.440100,0.439000,0.438100,0.437800,0.437500,0.437400,0.437300,0.437200,0.436800,0.436800,0.436800,1.000000,1.000000,1.000000,1.000000,1.000000,1.000000,1.000000,1.000000,1.000000,1.000000,1.000000,1.000000,1.000000,1.000000,1.000000,1.000000,1.000000,1.000000,1.000000,1.000000,1.000000,0.432600,0.432700,1.000000
0.106900,0.107000,0.107000,0.109000,0.109000,0.110400,0.110400,0.110900,0.112500,0.112700,0.113600,0.113900,0.114200,0.114400,0.114400,1.000000,1.000000,1.000000,1.000000,1.000000,1.000000,1.000000,1.000000,1.000000,1.000000,1.000000,1.000000,1.000000,1.000000,1.000000,1.000000,1.000000,1.000000,1.000000,1.000000,1.000000,1.000000,0.513400,0.514200,0.514300,0.514300,0.512600,0.512600,0.512500,0.512500,1.000000,0.512000,0.512000,0.511900,0.511000,0.510900,0.510800,0.510800,0.510700,0.510600,0.510500,0.511900,0.511900,0.509600,0.507900,0.510700,1.000000,0.509300,0.509100,0.509000,0.509000,0.508900,0.508700,0.508500,0.507500,0.507400,0.507300,0.507200,0.507200,0.507300,0.507300,0.508100,0.508200,0.507200,0.505900,0.504200,0.504200,0.504200,0.504200,0.504100,0.503900,0.503800,0.503800,0.503400,0.503500,0.503600,0.503600,0.503600,0.502700,0.502700,0.502700,0.502800,0.502800,0.502800,0.500400,0.500400,0.500400,0.500400,0.500400,0.500500,0.500800,0.500900,0.501000,0.501100,0.499900,0.499700,0.499600,0.499300,0.499200,0.499000,0.498700,0.498400,0.498100,0.498000,0.498000,0.498000,0.498100,0.498200,0.497000,0.496700,0.496600,0.496600,0.495600,0.495500,0.495500,0.495200,0.494400,0.494400,1.000000,0.453300,0.453200,0.453200,0.453100,0.452700,0.452700,0.456500,0.459200,0.479500,0.464200,1.000000,1.000000,1.000000,1.000000,1.000000,1.000000,0.466100,1.000000,0.466100,1.000000,1.000000,1.000000,0.488900,0.487900,1.000000,0.449700,0.449500,0.449400,0.449300,0.448200,0.448100,0.448000,0.448000,0.448000,0.448100,1.000000,1.000000,1.000000,1.000000,1.000000,1.000000,1.000000,1.000000,1.000000,1.000000,1.000000,1.000000,1.000000,0.482400,0.483400,1.000000,1.000000,1.000000,1.000000,1.000000,0.443500,0.443600,0.443700,0.443800,0.443900,0.443900,0.443800,0.443600,0.443400,0.443400,0.443400,0.443400,0.444600,0.452300,0.455100,1.000000,1.000000,1.000000,1.000000,1.000000,1.000000,1.000000,0.456900,1.000000,0.453900,0.453900,1.000000,1.000000,1.000000,1.000000,1.000000,1.000000,1.000000,0.438100,0.437500,0.437500,0.437400,0.437400,0.437300,0.437200,0.436900,0.436800,0.436800,1.000000,1.000000,1.000000,1.000000,1.000000,1.000000,1.000000,1.000000,1.000000,1.000000,1.000000,1.000000,1.000000,1.000000,1.000000,1.000000,1.000000,1.000000,1.000000,1.000000,1.000000,0.432700,0.432900,0.432900
0.107000,0.107100,0.107400,0.108600,0.108800,0.110400,0.110500,0.111200,0.112900,0.113600,0.114100,0.114300,0.114400,0.114500,0.114500,0.117300,1.000000,1.000000,1.000000,1.000000,1.000000,1.000000,1.000000,1.000000,1.000000,1.000000,1.000000,1.000000,1.000000,1.000000,1.000000,1.000000,1.000000,1.000000,1.000000,0.514200,0.513400,0.514200,0.514200,0.514200,0.514200,0.512600,0.512600,0.512600,0.512600,1.000000,1.000000,0.512000,0.511900,0.511000,0.511000,0.510900,0.512600,0.512400,0.512200,0.512000,0.511900,0.511900,0.511800,0.510700,1.000000,1.000000,1.000000,0.510000,0.509000,0.508900,0.508800,0.508400,0.508200,0.507800,0.507600,0.507500,0.507400,0.507400,0.507600,0.507900,0.508300,0.508400,0.507100,0.506100,0.504600,0.504400,0.504400,0.504200,0.504100,0.503900,0.503800,0.503800,0.503700,0.503700,0.503700,0.503700,0.503700,0.502800,0.502800,0.502800,0.502800,0.502900,0.503000,0.500400,0.500400,0.500400,0.500400,0.500500,0.500600,0.500900,0.501000,0.501000,0.501100,0.499900,0.499800,0.499700,0.499400,0.499200,0.498500,0.498400,0.498300,0.498200,0.498100,0.498100,0.498100,0.498300,0.498400,0.497100,0.497000,0.496800,0.496700,0.496700,0.496700,0.495500,0.495400,0.494400,0.494300,1.000000,1.000000,1.000000,0.453300,0.453300,0.453600,0.453900,0.456500,0.459000,1.000000,0.464200,0.464600,0.464100,0.462900,0.462700,0.462600,0.462400,0.462400,0.463800,0.461600,1.000000,1.000000,1.000000,0.487900,0.487900,1.000000,0.449800,0.449600,0.449400,0.449300,0.448100,0.448000,0.447600,0.447200,0.447200,0.447100,0.448200,1.000000,1.000000,1.000000,1.000000,1.000000,1.000000,1.000000,1.000000,1.000000,1.000000,1.000000,1.000000,1.000000,1.000000,1.000000,1.000000,1.000000,1.000000,1.000000,0.443500,0.443600,0.443600,0.443800,0.443900,0.443900,0.443900,0.443800,0.443600,0.443500,0.443400,0.443400,1.000000,1.000000,1.000000,1.000000,1.000000,1.000000,1.000000,0.471800,0.467000,0.467000,1.000000,0.468900,0.461700,0.480100,1.000000,0.476100,0.476000,0.476000,1.000000,1.000000,1.000000,0.437300,0.437300,0.437400,0.437300,0.437300,0.437000,0.436900,0.436800,0.436700,0.436800,1.000000,1.000000,0.475800,1.000000,1.000000,1.000000,1.000000,1.000000,1.000000,1.000000,1.000000,1.000000,1.000000,1.000000,1.000000,1.000000,0.473200,0.471700,0.471600,0.471600,1.000000,0.433000,0.433000,0.433100
0.107000,0.107200,0.107700,0.108600,0.108700,0.110500,0.110600,0.111300,0.113500,0.113800,0.114200,0.114400,0.114600,0.116100,0.116200,0.117200,1.000000,1.000000,1.000000,1.000000,1.000000,1.000000,1.000000,1.000000,1.000000,1.000000,1.000000,1.000000,1.000000,1.000000,1.000000,1.000000,1.000000,1.000000,1.000000,0.514200,0.514200,0.514200,0.514200,0.514300,0.514200,0.512700,0.512600,0.512600,0.512600,0.512800,1.000000,0.512000,0.512000,0.511900,0.511900,0.512800,0.512700,0.512400,0.512200,0.512000,0.511900,0.511800,0.511800,0.511800,1.000000,1.000000,0.510100,0.510100,0.509900,0.508800,0.508700,0.508400,0.508200,0.507900,0.507800,0.509500,0.507800,0.507600,0.507800,0.508000,0.508400,0.508400,0.507100,0.507100,0.505300,0.504800,0.504600,0.504300,0.504100,0.503900,0.503900,0.503900,0.503900,0.503900,0.503800,0.503800,0.503800,0.503100,0.502800,0.502900,0.503000,0.503100,0.503100,0.500500,0.500500,0.500500,0.500500,0.500600,0.500800,0.501000,0.501100,0.501100,0.501100,0.499900,0.499900,0.499800,0.499700,0.498400,0.498300,0.498300,0.498300,0.498200,0.498200,0.498200,0.498200,0.498400,0.498600,0.497100,0.497000,0.496800,0.496700,0.496700,0.496700,0.496700,0.495400,0.494600,0.494300,0.494200,0.454800,0.453400,0.453400,0.453800,0.454000,0.455100,0.457400,0.458700,0.464300,0.464500,0.464800,0.464200,0.463000,0.462600,0.462500,0.462500,0.462300,0.462200,0.461500,1.000000,1.000000,1.000000,1.000000,1.000000,1.000000,0.450000,0.449500,0.449400,0.449300,0.449200,0.448000,0.447300,0.447200,0.447200,0.447100,1.000000,1.000000,1.000000,1.000000,1.000000,1.000000,1.000000,1.000000,1.000000,1.000000,1.000000,1.000000,0.473400,0.473400,1.000000,1.000000,1.000000,1.000000,1.000000,1.000000,0.444600,0.443600,0.443600,0.443800,0.443900,0.444000,0.444000,0.443900,0.443600,0.443500,0.443400,0.443300,1.000000,1.000000,1.000000,1.000000,1.000000,1.000000,1.000000,1.000000,1.000000,0.474600,0.476200,0.476200,0.478800,0.478800,1.000000,0.476100,0.476000,0.476000,1.000000,1.000000,0.437300,0.437300,0.437300,0.437300,0.437300,0.437200,0.437000,0.436800,0.436700,0.436700,0.436800,1.000000,1.000000,0.475800,1.000000,1.000000,1.000000,1.000000,1.000000,1.000000,0.476000,0.473400,1.000000,1.000000,0.474100,0.474100,0.473500,0.471800,0.471700,0.471600,0.471600,1.000000,0.433200,0.433200,1.000000
0.107100,0.107400,0.108000,0.108500,0.108600,0.110800,0.111100,0.111600,0.113700,0.113900,0.114400,0.114600,0.115000,0.116200,0.116500,0.117300,0.118600,0.118700,1.000000,0.118800,1.000000,1.000000,1.000000,1.000000,1.000000,1.000000,1.000000,1.000000,1.000000,1.000000,1.000000,1.000000,1.000000,1.000000,1.000000,0.515000,0.515000,0.515000,0.515000,0.514900,0.514400,0.513600,0.512900,0.512800,0.512800,0.512900,0.513100,0.512000,0.512000,0.512100,0.513000,0.512800,0.512700,0.511800,0.510700,0.510700,0.510700,0.511600,0.511600,0.511600,1.000000,1.000000,0.510100,0.510000,0.510000,0.509500,0.509000,0.508300,0.508200,0.508000,0.508000,0.509500,0.509500,0.509400,0.508000,0.508200,0.508700,0.508500,0.507400,0.507100,0.506400,0.506300,0.506200,0.504900,0.504700,0.504100,0.504100,0.504100,0.504100,0.504000,0.504000,0.503900,0.503900,0.503800,0.503100,0.503100,0.503200,0.503200,0.503300,0.501500,0.500900,0.500700,0.500700,0.501200,0.501200,0.501200,0.501200,0.501200,0.501200,0.500000,0.500000,0.499900,0.499800,0.498200,0.498200,0.498200,0.498200,0.498200,0.498200,0.498200,0.498200,0.498600,0.498700,0.497100,0.497100,0.496600,0.496600,0.496600,0.496700,0.496700,0.495500,0.495300,0.495300,0.494100,1.000000,0.454900,0.454900,0.455000,0.455000,0.455100,0.457600,0.458000,0.464400,0.465100,0.464900,0.464400,0.464300,0.462500,0.463700,0.463600,0.463500,1.000000,0.461600,1.000000,0.465500,0.469400,1.000000,0.455400,1.000000,0.450500,0.449500,0.449400,0.449300,0.449200,0.449100,0.447300,0.447200,0.447200,0.447100,0.447100,1.000000,1.000000,1.000000,1.000000,1.000000,1.000000,1.000000,1.000000,0.483500,0.484600,0.478700,0.473600,0.473600,0.476400,0.482300,1.000000,1.000000,1.000000,1.000000,0.444600,0.444600,0.443700,0.443800,0.443900,0.444000,0.444000,0.443900,0.443700,0.443600,0.443000,0.443000,1.000000,1.000000,0.479800,0.480700,0.479900,0.480600,0.480600,0.480200,0.476000,0.476000,0.479800,0.479800,0.480000,0.480100,0.478800,0.476200,0.476100,0.476000,0.476000,1.000000,1.000000,0.437300,0.437300,0.437300,0.437300,0.437100,0.437000,0.436800,0.436600,0.436600,0.436600,1.000000,1.000000,0.476000,0.476600,0.476600,1.000000,1.000000,0.476000,0.476000,0.474000,0.473400,1.000000,0.474100,0.474200,0.474200,0.473600,0.471800,0.471700,0.471600,0.471600,1.000000,0.433600,0.433500,0.433500
0.107100,0.107500,0.108100,0.108600,0.108600,0.111100,0.111600,0.112000,0.113600,0.113800,0.114500,0.115000,0.115600,0.116900,0.117200,0.118700,0.118700,0.118800,0.118800,0.118800,1.000000,1.000000,1.000000,1.000000,1.000000,1.000000,1.000000,1.000000,1.000000,1.000000,1.000000,1.000000,1.000000,1.000000,1.000000,0.515000,0.515000,0.515000,0.514900,0.514800,0.514400,0.514200,0.513900,0.514000,0.514000,0.514000,1.000000,0.513200,0.513200,0.513200,0.513100,0.512900,0.512900,0.511000,0.510600,0.510600,0.510600,0.511100,0.511400,0.511400,1.000000,1.000000,1.000000,0.510000,0.509900,0.509300,0.509200,0.509200,0.509300,0.509400,0.509500,0.509600,0.509500,0.509500,0.509100,0.508800,0.508700,0.508000,0.507800,0.507400,0.506500,0.506300,0.506300,0.505200,0.504900,0.504300,0.504200,0.504200,0.504100,0.504100,0.504000,0.503900,0.503900,0.503700,0.503100,0.503200,0.503200,0.503300,0.503400,0.501800,0.501400,0.501000,0.501000,0.501300,0.501300,0.501300,0.501300,0.501400,0.501300,0.500000,0.500000,0.500000,0.499900,0.499800,0.498200,0.498200,0.498200,0.498200,0.498300,0.498300,0.498800,0.500200,0.498700,0.497300,0.497100,0.496600,0.496600,0.496600,0.496800,0.496900,0.496900,0.495600,0.495500,0.495200,1.000000,0.454900,0.454900,0.455000,0.455000,0.455100,0.456500,0.457900,0.466900,0.468000,0.465700,0.465100,0.464800,0.467900,0.470000,0.472400,0.476000,0.475900,1.000000,1.000000,0.471000,0.471000,1.000000,1.000000,1.000000,0.450500,0.449500,0.449500,0.449300,0.449200,0.449100,0.448000,0.447200,0.447100,0.447100,1.000000,0.470400,0.470400,0.480500,0.480400,0.480100,0.479900,0.482100,0.483300,0.484400,0.484600,0.484600,0.478700,0.478700,0.482300,0.482300,0.482300,0.481100,1.000000,1.000000,0.444800,0.444700,0.443900,0.443900,0.444000,0.444000,0.444100,0.444000,0.443800,0.443500,0.442900,0.442900,1.000000,0.480300,0.480300,0.480800,0.480700,0.480700,0.480700,0.480700,0.480900,0.480900,0.481700,0.482000,0.482100,0.480300,0.480200,0.477400,0.476200,0.476200,0.476100,1.000000,1.000000,0.438600,0.438400,0.438400,0.438100,0.437100,0.437000,0.436800,0.436600,0.436500,0.436500,1.000000,1.000000,0.476700,0.476600,0.476600,0.476100,0.475900,0.474200,0.474000,0.473100,0.473200,0.473400,0.474200,0.474300,0.474300,0.474400,0.473300,0.473200,0.471600,0.471600,1.000000,0.433900,0.433900,0.433800
0.107200,0.107900,0.108400,0.108600,0.109200,0.111100,0.111800,0.112100,0.112900,0.113400,0.114600,0.115200,0.115700,0.117000,0.117200,0.118900,0.118900,0.119000,0.120900,0.121000,0.121000,1.000000,1.000000,1.000000,1.000000,1.000000,1.000000,1.000000,1.000000,1.000000,1.000000,1.000000,1.000000,1.000000,1.000000,0.515000,0.515000,0.515000,0.514900,0.514800,0.514400,0.514300,0.514000,0.514000,0.514000,0.515600,1.000000,0.514900,0.513300,0.513300,0.513200,0.513000,0.512900,0.510800,0.510500,0.510400,0.510400,0.510400,0.510600,0.511200,0.511300,1.000000,1.000000,0.510000,0.509900,0.509300,0.509100,0.509100,0.509300,0.509400,0.509400,0.509500,0.509500,0.509400,0.508500,0.508300,0.508100,0.507900,0.507800,0.507800,0.506800,0.506600,0.506500,0.506500,0.506400,0.504500,0.504400,0.504300,0.504200,0.504100,0.504000,0.503900,0.503900,0.502900,0.503100,0.503100,0.503200,0.503300,0.503500,0.503600,0.501700,0.501600,0.501600,0.501600,0.501500,0.501500,0.501400,0.501400,0.501400,0.500100,0.500100,0.500000,0.499900,0.499800,0.499600,0.498200,0.498200,0.498300,0.498300,0.498400,0.499300,0.500300,0.500300,0.498600,0.497100,0.496700,0.496600,0.496600,0.496900,0.497000,0.497100,0.496800,0.496700,0.495600,1.000000,0.454900,0.454100,0.454000,0.453900,0.453800,0.455100,0.458000,0.468100,0.469900,0.470000,0.470000,0.472200,0.473700,0.473700,0.474700,0.476000,1.000000,0.477600,0.477500,0.477300,0.478600,0.482500,1.000000,1.000000,1.000000,0.449800,0.449600,0.449400,0.449300,0.449100,0.448100,0.448100,0.448100,0.448200,1.000000,0.470400,0.477400,0.482400,0.482400,0.482300,0.482200,0.483200,0.484200,0.484700,0.485800,0.484600,0.482200,0.482200,0.482300,0.482300,0.482400,0.481000,0.480900,1.000000,0.444900,0.444800,0.444000,0.444000,0.444100,0.444100,0.444100,0.444000,0.443900,0.442900,0.442800,0.442800,1.000000,0.480600,0.481000,0.480900,0.480800,0.480800,0.480800,0.480900,0.480900,0.481000,0.482100,0.482100,0.482100,0.482100,0.480400,0.478900,0.478400,0.478200,0.478600,0.478900,1.000000,0.439600,0.438600,0.438400,0.438300,0.437400,0.436900,0.436800,0.436700,0.436600,1.000000,1.000000,1.000000,0.476800,0.476700,0.476700,0.475800,0.474400,0.474300,0.473000,0.473100,0.473100,0.473400,0.473500,0.474300,0.474400,0.474400,0.474500,0.474600,0.473100,0.473100,1.000000,1.000000,0.434100,0.434100
0.107200,0.107600,0.108200,0.108700,0.109800,0.111100,0.111600,0.112100,0.112900,0.113200,0.114900,0.115600,0.116200,0.117200,0.117500,0.119000,0.119200,0.120000,0.121100,0.121000,0.121000,0.118000,1.000000,1.000000,1.000000,1.000000,1.000000,1.000000,1.000000,1.000000,1.000000,1.000000,1.000000,1.000000,1.000000,0.515100,0.515100,0.516200,0.516000,0.514800,0.514400,0.514300,0.514200,0.514200,0.515400,1.000000,1.000000,1.000000,0.514200,0.513500,0.513400,0.513100,0.511900,0.511600,0.510400,0.510400,0.510400,0.510400,0.510400,0.511200,0.508600,1.000000,1.000000,0.510000,0.510000,0.510000,0.508900,0.508400,0.508100,0.508000,0.508000,0.508200,0.508300,0.508400,0.508300,0.508200,0.508100,0.507900,0.507800,0.507800,0.506600,0.506600,0.506600,0.506600,0.506600,0.504500,0.504400,0.504400,0.504200,0.504100,0.504000,0.503900,0.502800,0.501700,0.501800,0.502000,0.503100,0.503300,0.503600,0.503700,0.501800,0.501800,0.501700,0.501700,0.501600,0.501500,0.501400,0.501400,0.501300,0.500200,0.500200,0.500100,0.500000,0.499700,0.499600,0.499400,0.499300,0.498300,0.498300,0.498300,0.499700,0.500300,0.500300,0.498500,0.497300,0.497200,0.497000,0.497000,0.497100,0.497200,0.497200,0.497400,0.497500,1.000000,1.000000,0.454800,0.454200,0.454000,0.453900,0.453800,0.453800,0.461600,0.475200,0.474100,0.474100,0.474100,0.474100,0.474200,0.474600,0.476100,0.477500,0.477600,0.477600,0.477500,0.478600,0.481000,0.487200,0.488400,0.490200,1.000000,0.449800,0.449800,0.449400,0.449300,0.449100,0.448300,0.448200,0.448200,0.448200,1.000000,0.484800,0.484800,0.484500,0.484400,0.484400,0.484400,0.484800,0.486000,0.485800,0.485800,0.484700,0.484600,0.484600,0.485700,0.485600,0.484900,0.483300,0.482300,1.000000,0.445700,0.445400,0.445300,0.444200,0.444200,0.444200,0.444200,0.444100,0.444100,0.442800,0.442800,0.442800,1.000000,0.481200,0.481100,0.480900,0.480800,0.480800,0.480900,0.480900,0.480900,0.480800,0.480800,0.481600,0.482100,0.482000,0.482000,0.480500,0.479000,0.479000,0.479000,0.479000,1.000000,0.439600,0.439500,0.438700,0.438400,0.437700,0.436900,0.436800,0.436700,0.436600,0.436500,1.000000,1.000000,0.477200,0.477200,0.476800,0.474500,0.474400,0.474400,0.474300,0.474300,0.474300,0.473500,0.473500,0.473500,0.473500,0.474100,0.474500,0.475200,0.475200,0.475200,1.000000,0.434400,0.434300,0.434300
0.107100,0.107600,0.107900,0.109300,0.110700,0.111100,0.111300,0.112200,0.113000,0.113200,0.115000,0.115700,0.116400,0.117300,0.117900,0.119300,0.119800,0.120400,0.121200,0.121200,0.118000,0.114000,0.114000,1.000000,1.000000,1.000000,1.000000,1.000000,1.000000,1.000000,1.000000,1.000000,1.000000,1.000000,1.000000,0.515100,0.516900,0.517000,0.517000,0.517000,0.515100,0.514300,0.514200,0.515200,0.515300,1.000000,1.000000,0.515400,0.514200,0.513700,0.513500,0.512000,0.512000,0.511900,0.510500,0.510400,0.510400,0.510400,0.510400,0.511200,0.508700,0.508600,0.507800,0.510000,0.510000,0.510000,0.510000,0.508200,0.508100,0.508000,0.508000,0.508200,0.508300,0.508400,0.508300,0.508200,0.508100,0.508000,0.506600,0.506600,0.506600,0.506600,0.506600,0.506600,0.506600,0.504600,0.504500,0.504400,0.504200,0.504100,0.504000,0.503900,0.502700,0.501700,0.501700,0.501800,0.502500,0.503300,0.503800,0.503900,0.503900,0.501800,0.501800,0.501800,0.501600,0.501500,0.501400,0.501300,0.501200,0.501100,0.500200,0.500100,0.500000,0.499700,0.499600,0.499400,0.499300,0.498200,0.498200,0.498100,0.498600,0.500300,0.500200,0.498600,0.497400,0.497300,0.497200,0.497100,0.497100,0.497200,0.497300,0.497400,1.000000,0.495800,1.000000,0.454600,0.454300,0.454000,0.453800,0.453800,0.453700,0.466400,0.475200,0.475900,0.475900,0.478400,0.479200,0.477200,0.477200,0.477300,0.477500,0.477500,0.476200,0.478600,0.481000,0.485300,0.487900,0.489300,0.490200,1.000000,1.000000,0.449800,0.449500,0.449300,0.449100,0.448900,0.448400,0.448400,0.448400,1.000000,0.484800,0.484800,0.485500,0.485500,0.485600,0.486200,0.486100,0.486000,0.485900,0.485900,0.484700,0.484700,0.484700,0.485700,0.485600,0.485500,0.484700,0.483400,1.000000,0.445800,0.445800,0.445800,0.445800,0.444200,0.444200,0.444200,0.444200,0.444100,0.444100,0.442800,0.442800,1.000000,1.000000,0.481200,0.480900,0.480800,0.480900,0.481200,0.481000,0.480900,0.480800,0.480700,0.480700,0.481900,0.481900,0.481900,0.480500,0.480500,0.479100,0.479100,0.479100,1.000000,0.439600,0.439600,0.439500,0.438800,0.437800,0.436800,0.436800,0.436700,0.436600,0.436500,1.000000,1.000000,0.478500,0.477500,0.475700,0.474500,0.474400,0.474400,0.475600,0.476600,0.476100,0.474500,0.473500,0.473500,0.473500,0.473500,0.473500,0.474700,0.474900,0.474900,1.000000,0.434500,0.434400,0.434400
0.107000,0.107500,0.107800,0.109700,0.110900,0.111100,0.111200,0.112400,0.113100,0.113400,0.115200,0.115800,0.116300,0.118100,0.118800,0.119600,0.120200,0.121300,0.121400,0.121600,0.119100,0.114000,0.111600,0.109600,1.000000,1.000000,1.000000,1.000000,1.000000,1.000000,1.000000,1.000000,1.000000,1.000000,1.000000,0.516900,0.517600,0.517200,0.517100,0.517000,0.515200,0.515200,0.515100,0.515200,0.515200,0.515200,1.000000,0.515400,0.513600,0.513400,0.512200,0.512000,0.512000,0.511900,0.510800,0.510400,0.510400,0.510400,0.510400,0.511300,0.511300,0.508800,0.508800,0.510000,0.510100,0.510100,0.510100,0.508100,0.508000,0.508000,0.508000,0.508200,0.508300,0.508400,0.508400,0.508300,0.508300,0.508000,0.506600,0.506600,0.506600,0.506600,0.506700,0.506800,0.506900,0.505000,0.504900,0.504800,0.504200,0.504100,0.504000,0.503900,0.502800,0.501700,0.501700,0.501800,0.502300,0.503800,0.503900,0.503900,0.503900,0.503700,0.501900,0.501900,0.501700,0.501400,0.501200,0.501100,0.501100,0.500900,0.500300,0.500200,0.500100,0.499900,0.499500,0.499400,0.499300,0.498100,0.498000,0.498000,0.498000,0.498800,0.498700,0.498600,0.498400,0.497700,0.498300,0.497300,0.497200,0.497200,0.496000,0.495900,0.495900,0.495800,1.000000,0.454600,0.454400,0.454100,0.453800,0.453800,1.000000,0.477200,0.477200,0.477300,0.477600,0.479300,0.479300,0.479200,0.477200,0.477200,0.477100,0.476700,0.476100,0.476100,0.480800,0.487700,0.489200,0.490200,0.490200,1.000000,0.450000,0.450000,0.449600,0.449300,0.449100,0.449000,0.448900,0.448800,0.448800,1.000000,0.485500,0.485500,0.485700,0.486600,0.486500,0.486200,0.486200,0.486100,0.486000,0.485900,0.485800,0.485600,0.485800,0.485800,0.485600,0.485500,0.485100,0.485000,0.484000,1.000000,0.445900,0.445900,0.445800,0.445800,0.444300,0.444300,0.444200,0.444200,0.444100,0.442900,0.443400,1.000000,0.483000,0.481600,0.480900,0.481000,0.481300,0.481600,0.481700,0.481800,0.480600,0.479100,0.479100,0.481600,0.481800,0.481900,0.480600,0.480600,0.480600,0.479200,0.479200,1.000000,0.439600,0.439600,0.439500,0.438900,0.438700,0.437900,0.436800,0.436700,0.436600,0.436500,1.000000,0.478500,0.478500,0.477500,0.475700,0.474500,0.474500,0.474400,0.476600,0.476600,0.476600,0.476200,0.473500,0.473500,0.473500,0.473500,0.473500,0.473500,0.472500,0.472500,1.000000,0.435100,0.434900,0.434700
0.106600,0.107600,0.108100,0.109900,0.110900,0.111000,0.111200,0.112700,0.113500,0.113600,0.115400,0.116000,0.116100,0.118400,0.119200,0.119700,0.120400,0.121200,0.121700,0.122300,0.120200,0.114000,0.111600,0.109500,0.108000,1.000000,1.000000,1.000000,1.000000,1.000000,1.000000,1.000000,1.000000,1.000000,1.000000,0.517500,0.517600,0.517500,0.517200,0.517000,0.515200,0.515200,0.515100,0.515100,0.515100,1.000000,1.000000,1.000000,0.513300,0.513200,0.512200,0.512100,0.512100,0.512000,0.510700,0.510600,0.510500,0.510700,0.511400,0.511400,0.511400,0.508800,0.508800,0.510000,0.510000,0.510100,0.510100,0.509600,0.508000,0.508000,0.508000,0.508200,0.508300,0.508400,0.508400,0.508400,0.508400,0.508400,0.507900,0.506600,0.506600,0.506600,0.506800,0.506800,0.507000,0.505700,0.505200,0.505000,0.504900,0.504200,0.504000,0.503900,0.503900,0.501700,0.501700,0.503000,0.503700,0.503800,0.503800,0.503800,0.503800,0.503700,0.503700,0.502100,0.502100,0.501900,0.501100,0.501100,0.501000,0.500600,0.500500,0.500400,0.500400,0.500500,0.500600,0.499400,0.498200,0.498100,0.498000,0.498000,0.498000,0.498800,0.498700,0.498600,0.498600,0.498400,0.498300,0.498200,0.498200,0.496800,0.496000,0.496000,0.495900,0.495900,0.495900,0.454600,0.454500,0.454100,0.453800,0.453700,0.453700,0.477100,0.477200,0.477300,0.477400,0.477500,0.477500,0.474800,0.474100,0.474100,0.475900,0.475000,0.474100,0.474900,0.475400,0.477800,0.489800,0.490200,0.490400,0.490300,0.450200,0.450000,0.449900,0.449400,0.449100,0.449100,0.449000,0.449000,0.448900,1.000000,0.486800,0.486800,0.486800,0.486700,0.486600,0.486400,0.486300,0.486200,0.486000,0.486000,0.486000,0.486000,0.486000,0.486000,0.485800,0.485400,0.485100,0.485000,0.484900,1.000000,0.446000,0.445900,0.445800,0.445800,0.445600,0.445300,0.444300,0.444200,0.444200,0.444000,0.443900,1.000000,0.483000,0.481800,0.481300,0.481200,0.481300,0.481300,0.481100,0.480300,0.479000,0.479000,0.478900,0.481100,0.481100,0.480700,0.480700,0.480600,0.480600,0.480600,0.479400,1.000000,0.439600,0.439600,0.439000,0.438700,0.438600,0.438600,0.436800,0.436700,0.436600,0.436500,1.000000,1.000000,0.478500,0.476600,0.475700,0.475700,0.475700,0.476600,0.476600,0.476600,0.476600,0.476500,0.474900,0.473600,0.473600,0.473500,1.000000,0.473500,0.472500,1.000000,1.000000,0.435300,0.435200,0.435100
0.106600,0.107600,0.108500,0.110600,0.110800,0.111000,0.112500,0.113000,0.113500,0.113600,0.115900,0.116100,0.116200,0.118400,0.119400,0.119800,0.120800,0.121000,0.122600,0.122600,0.122200,0.119300,0.111600,0.108000,0.108000,0.108000,1.000000,1.000000,1.000000,1.000000,1.000000,1.000000,1.000000,1.000000,1.000000,0.517300,0.517400,0.516700,0.516500,0.516200,0.513800,0.513800,0.514900,0.514900,0.514800,1.000000,1.000000,0.513200,0.513100,0.513100,0.512800,0.512200,0.512200,0.510800,0.510000,0.509900,0.510600,0.511500,0.511600,0.511600,0.511200,0.508700,0.508800,0.509800,0.510000,0.510000,0.510200,0.510200,0.510200,0.509800,0.509900,0.509900,0.509900,0.509400,0.508600,0.508600,0.508600,0.508600,0.508600,0.507800,0.506700,0.506700,0.506900,0.507000,0.507100,0.505900,0.505900,0.505900,0.505200,0.505200,0.505200,0.505000,0.503900,0.503800,0.503700,0.503600,0.503600,0.503600,0.503700,0.503700,0.503700,0.503700,0.503700,0.502200,0.502200,0.502200,0.501100,0.501000,0.500900,0.500600,0.500500,0.500500,0.500500,0.500600,0.500600,0.499400,0.498100,0.498100,0.498000,0.498000,0.498000,0.498800,0.498700,0.498700,0.498600,0.498400,0.498400,0.498200,0.498100,0.498100,0.496400,0.496200,0.496100,0.496000,0.496000,0.455000,0.454700,0.454600,0.453800,0.453700,1.000000,0.477100,0.477200,0.477300,0.477400,0.477500,0.474600,0.474100,0.474100,0.473000,0.474100,0.474100,0.474000,0.474100,0.474900,0.476000,0.490300,0.491300,1.000000,1.000000,1.000000,0.450300,0.450300,0.450200,0.449200,0.449100,0.449100,0.449100,0.449100,1.000000,0.486700,0.486800,0.486800,0.486700,0.486700,0.486500,0.486400,0.486200,0.486200,0.487000,0.486000,0.486100,0.486100,0.486200,0.486100,0.485600,0.485000,0.484900,0.484800,1.000000,0.445900,0.445800,0.445700,0.445600,0.445400,0.445300,0.444800,0.444400,0.444300,0.444100,1.000000,1.000000,0.483000,0.483000,0.482900,0.481400,0.481300,0.480300,0.480200,0.480100,1.000000,1.000000,0.478400,0.481000,0.481000,0.480700,0.480700,0.480700,0.480700,0.480700,1.000000,1.000000,0.439600,0.439600,0.438700,0.438700,0.438600,0.438500,0.437400,0.437000,0.436700,0.436600,1.000000,1.000000,1.000000,0.476600,0.475700,0.475700,0.475700,0.476600,0.476600,0.476600,0.476600,0.476500,0.475000,0.473700,0.473800,0.473600,0.474200,0.472400,0.472400,1.000000,1.000000,0.435100,0.435200,1.000000
0.106700,0.108200,0.108400,0.110800,0.110800,0.111000,0.112800,0.113400,0.113500,0.113600,0.116000,0.116200,0.116200,0.118400,0.119500,0.120000,0.121000,0.121100,0.122600,0.122800,0.124200,0.123200,0.114000,0.108000,0.108000,0.108000,1.000000,1.000000,1.000000,1.000000,1.000000,1.000000,1.000000,1.000000,0.517200,0.517200,0.517200,0.516400,0.516300,0.516200,0.513800,0.513800,0.513700,0.514800,0.514800,0.514800,1.000000,0.513100,0.513100,0.513100,0.513000,0.512600,0.512400,0.509800,0.509800,0.509800,0.509900,0.511600,0.512000,0.511700,0.511000,0.508200,0.508200,0.509300,0.509900,0.509900,0.510200,0.510400,0.510300,0.510000,0.510000,0.510000,0.509900,0.509800,0.508700,0.508700,0.508700,0.508600,0.508600,0.508500,0.506800,0.506800,0.507000,0.507100,0.507200,0.506000,0.506000,0.506000,0.506100,0.506200,0.506000,0.505900,0.505400,0.503700,0.503700,0.503600,0.503600,0.503600,0.503700,0.503700,0.503800,0.503700,0.503700,0.502200,0.502200,0.502300,0.502300,0.501000,0.500800,0.500600,0.500600,0.500500,0.500600,0.500600,0.500700,0.499600,0.499600,0.498100,0.498100,0.498200,0.499400,0.500000,0.499900,0.499900,0.498500,0.498400,0.498300,0.498100,0.498100,0.498000,0.497000,0.496700,0.496700,1.000000,1.000000,0.455200,0.454900,0.454700,0.454600,0.454600,0.454600,0.476700,0.477200,0.477200,0.477400,0.474400,0.474200,0.474200,0.473000,0.473000,0.473000,0.473000,0.472900,0.474100,0.474500,0.476000,0.490300,0.491600,1.000000,1.000000,0.450500,0.450400,0.450400,0.450400,0.449200,0.449100,0.449100,0.449100,0.449100,1.000000,0.488200,0.486900,0.486900,0.486800,0.486800,0.486800,0.488200,0.488200,0.488200,0.488200,0.486700,0.486500,0.486500,0.486500,0.487000,0.486400,0.485000,0.484900,0.484800,1.000000,0.445800,0.445700,0.445600,0.445500,0.445400,0.445300,0.445000,0.444800,0.444700,0.444500,1.000000,1.000000,0.482900,0.482900,0.482900,0.482900,0.481400,0.480200,1.000000,1.000000,1.000000,1.000000,0.481100,1.000000,0.481000,0.480700,0.480700,0.480700,0.481800,0.481800,1.000000,0.441900,0.439400,0.438800,0.438700,0.438600,0.438500,0.437500,0.437300,0.437100,0.436700,0.436600,1.000000,1.000000,1.000000,1.000000,0.476300,0.475800,0.475800,0.476500,0.476600,0.476600,0.476500,0.476500,0.475200,0.474000,0.474000,0.474100,1.000000,0.472400,0.472400,1.000000,1.000000,0.435000,1.000000,1.000000
0.108200,0.108400,0.108500,0.110800,0.110800,0.111400,0.113000,0.113400,0.113500,0.113700,0.116100,0.116200,0.116600,0.118400,0.119600,0.120800,0.121000,0.121200,0.122800,0.123100,0.124400,0.124300,0.114000,0.109400,0.108000,0.108000,0.109600,1.000000,1.000000,1.000000,1.000000,1.000000,1.000000,1.000000,0.517200,0.517100,0.516800,0.516400,0.516300,0.516300,0.513800,0.513800,0.513800,0.513800,0.514700,1.000000,1.000000,1.000000,0.513100,0.513100,0.513100,0.512900,0.512500,0.509800,0.509800,0.509800,0.509900,0.512700,0.513500,0.511900,0.511000,0.508200,0.508200,0.509400,0.509900,0.509900,0.510800,0.510500,0.510400,0.510100,0.510000,0.510000,0.509900,0.509800,0.509600,0.508700,0.508700,0.508600,0.508600,0.508600,0.507000,0.507000,0.507100,0.507200,0.507200,0.506000,0.506100,0.506300,0.506300,0.506200,0.506100,0.505900,0.505100,0.503700,0.503700,0.503600,0.503600,0.503600,0.503600,0.503800,0.503800,0.503700,0.503700,0.502200,0.502200,0.502300,0.502300,0.502300,0.500900,0.500600,0.500600,0.500600,0.500600,0.500600,0.500600,0.499600,0.499600,0.499600,0.499700,0.499900,0.499900,0.500000,0.499900,0.499900,0.498500,0.498400,0.498300,0.498100,0.498100,0.498000,0.497500,0.497300,0.497300,1.000000,1.000000,0.455300,0.455100,0.454900,0.454700,0.454700,1.000000,0.477100,0.477100,0.477200,0.474500,0.474400,0.474300,0.474200,0.474200,0.473000,0.473000,0.472900,0.472900,0.472900,0.474300,0.476100,0.491600,0.491600,0.491900,1.000000,0.450600,0.450500,0.450500,0.450500,0.449100,0.449100,0.449100,0.449100,0.449100,1.000000,0.486900,0.486900,0.486800,0.486800,0.486800,0.486800,0.488200,0.488200,0.488200,0.488200,0.486800,0.486700,0.486700,0.486700,0.487400,0.487100,0.485000,0.484900,0.484900,1.000000,0.445800,0.445000,0.445200,0.445400,0.445300,0.445300,0.444900,0.444800,0.444800,0.444700,0.444700,1.000000,0.482800,0.482800,0.482800,0.482900,0.483000,0.481700,1.000000,1.000000,1.000000,1.000000,0.481100,0.481100,0.481000,0.480800,0.480700,0.480800,0.483400,0.483400,0.481900,1.000000,0.439300,0.438800,0.438700,0.438600,0.438500,0.437400,0.437300,0.437100,0.437000,0.436800,1.000000,1.000000,1.000000,0.484000,0.483100,0.475800,0.476200,0.476500,0.476600,0.476600,0.476500,0.476400,0.475500,0.474200,0.474200,0.474300,0.474400,0.474500,1.000000,1.000000,1.000000,0.435000,1.000000,0.435000
0.108400,0.108400,0.108500,0.110800,0.110900,0.111600,0.113100,0.113300,0.113500,0.114100,0.116400,0.116800,0.116900,0.118700,0.119600,0.120900,0.121000,0.121600,0.122900,0.123400,0.124400,0.124400,0.111900,0.109400,0.109500,0.109500,0.109800,0.109700,1.000000,1.000000,0.115600,1.000000,1.000000,1.000000,0.517200,0.517200,0.516500,0.516400,0.516300,0.516300,0.513800,0.513800,0.513800,0.513800,0.514600,0.515300,1.000000,1.000000,0.513200,0.513100,0.513100,0.513100,0.513100,0.512400,0.511200,0.511200,0.512600,0.513500,0.513500,0.513500,0.512200,0.508100,0.508100,0.510000,0.511400,0.511400,0.511600,0.510900,0.510700,0.510300,0.510300,0.510200,0.510000,0.509900,0.508700,0.508700,0.508600,0.508600,0.508600,0.508600,0.507200,0.507200,0.507300,0.507400,0.507400,0.506300,0.506300,0.506400,0.506300,0.506300,0.505000,0.505000,0.505000,0.504800,0.503600,0.503600,0.503600,0.503600,0.503600,0.503900,0.503900,0.503800,0.502200,0.502200,0.502200,0.502200,0.502200,0.502200,0.501200,0.500600,0.500600,0.500600,0.500600,0.500700,0.500600,0.500600,0.499600,0.499800,0.499800,0.500000,0.500000,0.500000,0.499900,0.499800,0.499600,0.498500,0.498300,0.498200,0.498100,0.498100,0.498000,0.497700,0.498000,1.000000,1.000000,0.455400,0.455200,0.455100,0.454900,0.454900,1.000000,0.474500,0.474600,0.474600,0.474500,0.474400,0.474400,0.474400,0.474600,0.475800,0.475800,0.472900,0.472900,0.472900,0.472900,0.480500,0.491600,0.492400,0.492400,1.000000,0.450600,0.450600,0.450600,0.450600,0.449100,0.449100,0.449100,0.449100,0.449100,1.000000,0.486900,0.486900,0.486800,0.486800,0.486800,0.486800,0.488200,0.488200,0.487000,0.487000,0.486800,0.486800,0.486800,0.486800,0.487400,0.487400,0.487200,0.487000,0.485000,1.000000,0.444800,0.444800,0.444900,0.445200,0.445300,0.445300,0.444900,0.444800,0.444800,0.444800,1.000000,1.000000,1.000000,0.482800,0.482900,0.483200,0.483600,1.000000,1.000000,1.000000,1.000000,1.000000,1.000000,0.481300,0.481200,0.481200,0.481200,0.482200,0.483400,0.482100,0.481900,1.000000,0.439200,0.439000,0.438800,0.438700,0.438600,0.437400,0.437200,0.437100,0.437000,0.437000,1.000000,0.478900,0.480000,0.481000,0.479900,0.476300,0.476400,0.476500,0.478000,0.478000,0.476400,0.476300,0.476000,0.475300,0.474400,0.474400,0.474500,0.474600,1.000000,1.000000,1.000000,0.435100,0.435000,0.435000
0.108500,0.108600,0.109200,0.110900,0.111000,0.111800,0.113200,0.113300,0.114200,0.114200,0.116800,0.117000,0.117100,0.119400,0.119500,0.119800,0.120800,0.122200,0.123600,0.123600,0.124600,0.124600,0.111700,0.110000,0.110100,0.110100,0.110800,0.110900,0.111000,1.000000,0.115600,1.000000,1.000000,0.517200,1.000000,0.517400,0.517500,0.516400,0.516300,0.516300,0.516300,0.515600,0.514400,0.514400,0.515300,0.515400,0.515400,0.515400,0.513600,0.513200,0.513200,0.514100,0.513200,0.512600,0.512600,0.512600,0.512500,0.512400,0.512300,0.512300,0.512300,0.510300,0.510300,0.511300,0.511400,0.511400,0.511600,0.511600,0.510900,0.510500,0.510400,0.510300,0.510000,0.509900,0.508600,0.508600,0.508600,0.508600,0.508600,0.508600,0.508500,0.507400,0.507500,0.507600,0.508300,0.508300,0.506600,0.506500,0.506300,0.505000,0.505000,0.505000,0.505000,0.504900,0.504900,0.503600,0.504500,0.504800,0.504200,0.504100,0.504000,0.503900,0.502200,0.502200,0.502200,0.502200,0.502200,0.502000,0.501500,0.501300,0.500900,0.500800,0.500800,0.500800,0.500800,0.500800,0.500800,0.500600,0.500100,0.500000,0.500000,0.500000,0.499800,0.499600,0.499400,0.499100,0.499000,0.498500,0.498200,0.498200,0.498100,0.498200,0.498200,0.498200,1.000000,0.455400,0.455300,0.455200,0.455000,0.455000,1.000000,0.473200,0.473200,0.474600,0.474500,0.474400,0.474400,0.474400,0.474900,0.475800,0.475800,0.472700,0.471000,0.471000,0.472800,0.483700,0.492600,0.492500,0.492400,1.000000,0.452600,0.451500,0.451100,0.450600,0.449100,0.449100,0.449100,0.449100,0.449100,0.449100,0.486900,0.486800,0.486300,0.486400,0.486800,0.486900,0.487000,0.487000,0.487000,0.487000,0.486900,0.487000,0.487000,0.487200,0.487400,0.487400,0.487300,0.487100,1.000000,1.000000,0.444800,0.444800,0.444800,0.445400,0.445400,0.445400,0.444900,0.444900,0.444800,0.444800,0.444900,1.000000,1.000000,0.482800,0.482800,1.000000,1.000000,1.000000,1.000000,1.000000,1.000000,1.000000,1.000000,0.483900,0.481300,0.481200,0.481200,0.481300,0.481200,0.480000,0.479900,1.000000,0.439200,0.439200,0.439100,0.439000,0.438800,0.438700,0.437200,0.437200,0.437200,0.437200,1.000000,1.000000,0.479000,0.479900,0.479900,0.479900,0.479900,0.478400,0.478300,0.478200,0.476200,0.476100,0.476000,0.475900,0.475900,0.474600,0.474600,0.474600,1.000000,1.000000,0.435400,0.437800,0.435200,1.000000
0.108600,0.108600,0.109500,0.111000,0.111200,0.111900,0.113200,0.114200,0.114200,0.114400,0.117000,0.117200,0.118400,0.119500,0.119500,0.119800,0.120800,0.122300,0.123600,0.123700,0.124800,0.124700,0.111700,0.110000,0.110200,0.110300,1.000000,0.111000,1.000000,1.000000,1.000000,1.000000,1.000000,0.517700,0.517700,0.517600,0.517600,0.517600,0.517600,0.517600,0.517500,0.517500,0.515600,0.515500,0.515400,0.515400,0.514200,0.514200,0.514200,0.514200,0.515700,0.515600,0.515400,0.512700,0.512600,0.512600,0.512400,0.512300,0.512300,0.512300,0.512300,0.510400,1.000000,1.000000,0.511400,0.511500,0.511600,0.511700,0.511700,0.510700,0.510600,0.510500,0.510100,0.509900,0.509900,0.509900,0.510000,0.510000,0.509900,0.509800,0.508900,0.507700,0.507600,0.507500,0.507900,0.508400,0.508400,0.506700,0.506200,0.505000,0.505000,0.505000,0.505000,0.505000,0.505000,0.504800,0.505100,0.505100,0.504900,0.504200,0.504100,0.503800,0.502200,0.502200,0.502100,0.502000,0.501800,0.501700,0.501500,0.501400,0.501300,0.501000,0.500900,0.501000,0.501000,0.501100,0.501100,0.501000,0.501000,0.500200,0.500100,0.500000,0.499800,0.499600,0.499400,0.499200,0.499200,0.499000,0.498900,0.498800,0.498500,0.498400,0.498300,0.498300,1.000000,0.456300,0.456200,0.455300,0.455200,0.455200,1.000000,1.000000,0.473200,0.474600,0.474600,0.474500,0.474400,0.474400,0.474300,0.475200,1.000000,0.471100,0.471100,0.471000,0.472600,0.478000,0.491600,0.491600,0.491600,1.000000,0.452600,0.452600,0.451300,0.451200,0.449100,0.449100,0.449100,0.449100,0.449100,0.449100,0.486000,0.486100,0.485000,0.483800,0.485900,0.487000,0.487000,0.487000,0.487000,0.487000,0.487000,0.487000,0.487100,0.487200,0.487400,0.487400,0.487200,0.487000,0.487000,0.445000,0.444800,0.444800,0.446400,0.447300,0.445800,0.445600,0.445000,0.445000,0.445000,0.445100,0.445600,1.000000,1.000000,0.482900,0.482900,1.000000,1.000000,1.000000,1.000000,1.000000,1.000000,1.000000,1.000000,0.483300,0.483300,0.481400,0.481300,0.480000,0.480000,0.480000,0.479900,1.000000,1.000000,0.439200,0.439100,0.439000,0.438800,0.438800,0.438500,0.437200,0.437200,0.437300,1.000000,1.000000,0.477300,0.479000,0.477400,0.479800,0.479900,0.480000,0.478400,0.477500,0.475900,0.475900,0.475800,0.475800,0.475800,0.474600,0.473400,1.000000,1.000000,1.000000,0.438200,0.438100,0.437800,1.000000
0.108700,0.109300,0.109900,0.111200,0.111600,0.112000,0.113100,0.114200,0.114300,0.114500,0.117000,0.117200,0.118300,0.119500,0.119500,0.120600,0.120900,0.122500,0.123700,0.124400,0.125200,0.125000,0.111800,0.109300,0.109300,0.109300,0.111100,0.111100,0.113000,1.000000,1.000000,1.000000,1.000000,0.517800,0.517800,0.517800,0.517700,0.517700,0.517700,0.517600,0.517500,0.517400,0.517300,0.515700,0.515500,0.514200,0.514200,0.514200,0.514200,0.514300,0.515700,0.515700,0.514300,0.512600,0.512600,0.512600,0.512000,0.512000,0.512000,0.512100,0.512100,0.510500,0.509200,1.000000,0.511400,0.511500,0.511600,0.511700,0.511700,0.510800,0.509700,0.509700,0.509800,0.509800,0.509900,0.509900,0.509900,0.509900,0.509900,0.509600,0.508500,0.508300,0.507800,0.507400,0.507200,0.508500,0.508500,0.507200,0.507000,0.506300,0.506200,0.506300,0.506300,0.507200,0.507100,0.506600,0.506500,0.506400,0.505400,0.505400,0.505500,0.504000,0.503500,0.503400,0.502100,0.502000,0.501800,0.501700,0.501600,0.501500,0.501500,0.501500,0.502000,0.502000,0.501100,0.501200,0.501200,0.501200,0.501100,0.500300,0.500200,0.500100,0.499900,0.499600,0.499500,0.499300,0.499200,0.499100,0.499000,0.498800,0.498600,0.498500,0.498300,0.498200,1.000000,0.456300,0.456300,0.456200,0.455300,0.455200,0.455300,1.000000,0.474600,0.475600,0.475500,0.474500,0.474300,0.473800,0.473400,0.472900,0.471300,0.471200,0.471200,0.472400,0.474900,0.476600,0.490200,0.491600,1.000000,1.000000,0.452600,0.452500,0.451200,0.451200,0.449700,0.449500,0.449400,0.449300,0.449300,0.449300,0.483400,0.484900,0.483500,0.482600,0.482700,0.485800,0.487100,0.487100,0.487100,0.487000,0.486900,0.487000,0.487000,0.487200,0.487400,0.487200,0.487100,0.487000,0.486900,0.446500,0.445600,0.445600,0.447400,0.447300,0.447300,0.445700,0.445200,0.445200,0.445200,0.445200,0.445400,0.445400,1.000000,1.000000,0.478700,0.475000,1.000000,1.000000,1.000000,1.000000,1.000000,0.481100,0.483200,0.483200,0.483300,0.481400,1.000000,0.480000,0.480000,0.480000,0.480000,1.000000,0.439800,0.439400,0.439100,0.439000,0.438800,0.438700,0.438700,0.438700,0.438500,0.437400,0.439000,1.000000,0.477400,0.477400,0.477400,0.477300,0.479800,0.479900,1.000000,0.475200,0.475500,0.475800,0.475600,0.475600,0.475500,0.471700,0.471100,1.000000,1.000000,1.000000,0.438200,0.437800,0.437600,0.437600
0.108700,0.109700,0.109800,0.111300,0.111800,0.112700,0.113100,0.114100,0.114200,0.115100,0.116100,0.117200,0.118200,0.119500,0.119500,0.120700,0.122200,0.122700,0.123700,0.124500,0.125500,0.125300,0.112100,0.109300,0.109300,0.109300,0.110100,0.111200,0.111300,0.112900,1.000000,1.000000,1.000000,0.518900,0.519000,0.517800,0.517800,0.517700,0.517700,0.517600,0.517400,0.517300,0.517200,0.517100,0.516100,0.514300,0.512100,1.000000,0.514400,0.516000,0.517400,0.515800,0.514200,0.512600,0.512500,0.512500,0.512000,0.512000,0.512000,0.512000,0.512000,0.512100,1.000000,1.000000,0.511400,0.511400,0.511600,0.511700,0.511800,0.509700,0.509700,0.509700,0.509800,0.509800,0.509900,0.509900,0.509900,0.509700,0.509600,0.508900,0.508600,0.508400,0.508100,0.507100,0.507100,0.508400,0.508400,0.507200,0.507100,0.506800,0.506300,0.506300,0.507200,0.507300,0.507400,0.507400,0.506500,0.506400,0.505700,0.505600,0.505600,0.505500,0.503700,0.503400,0.503400,0.503200,0.501800,0.501700,0.501800,0.501700,0.501800,0.501900,0.502200,0.502200,0.502200,0.502000,0.501500,0.501400,0.501300,0.501300,0.500600,0.500300,0.500200,0.500000,0.500000,0.499600,0.499400,0.499200,0.499100,0.499000,0.498800,0.498700,0.498300,0.498200,1.000000,0.456300,0.456300,0.455400,0.455400,0.455400,1.000000,1.000000,0.475600,0.475600,0.475500,0.474500,0.473700,0.473600,0.473400,0.471300,0.471400,0.471400,0.472100,0.473700,0.474800,0.476400,0.490000,0.490100,1.000000,1.000000,0.451600,0.451400,0.451200,0.451200,0.449800,0.449600,0.449600,0.449500,0.449400,0.449400,0.474000,0.474000,0.478600,0.479600,0.480400,0.480400,0.487100,0.487300,0.487500,0.487700,0.486800,0.486900,0.486900,0.487600,0.487600,0.487200,0.487100,0.487000,0.487000,1.000000,0.447700,0.447500,0.447400,0.447300,0.447300,0.445800,0.445500,0.445400,0.445400,0.445400,0.445400,0.445400,1.000000,1.000000,0.474900,1.000000,1.000000,1.000000,1.000000,1.000000,0.479900,0.479800,0.479700,0.481400,0.481400,0.481400,0.480000,0.479900,0.480000,0.480000,0.480000,1.000000,0.440100,0.440000,0.439000,0.438800,0.438700,0.438700,0.438700,0.438800,0.438800,0.438900,1.000000,1.000000,1.000000,1.000000,0.477300,0.477300,0.477300,1.000000,0.473700,0.473700,0.475200,1.000000,1.000000,0.475500,0.475400,0.471600,1.000000,1.000000,1.000000,1.000000,0.439000,0.437800,0.437600,0.437600
0.108800,0.109500,0.109700,0.111500,0.112000,0.112700,0.113400,0.114100,0.114400,0.115600,0.116000,0.117200,0.118300,0.119500,0.119600,0.120800,0.122500,0.123000,0.123700,0.124400,0.125600,0.125500,0.112200,0.109300,0.109300,0.109200,0.110000,0.110200,0.111300,0.112800,0.112800,1.000000,1.000000,0.519000,0.519800,0.519300,0.517800,0.517800,0.517700,0.517600,0.517200,0.517200,0.517000,0.517000,0.516400,0.512300,1.000000,1.000000,0.514500,0.517400,0.517400,0.515800,0.514300,0.512600,0.512500,0.512400,0.512000,0.511900,0.511900,0.511900,0.512000,0.512000,1.000000,1.000000,0.510800,0.511400,0.511700,0.511800,0.511800,0.509700,0.509700,0.509700,0.509800,0.509900,0.509900,0.509900,0.509800,0.509600,0.509300,0.508900,0.508600,0.508500,0.508300,0.507100,0.507100,0.508400,0.508000,0.507200,0.507200,0.507100,0.506400,0.506400,0.507300,0.507300,0.507400,0.507400,0.507400,0.506400,0.505800,0.505700,0.505600,0.505500,0.503700,0.503500,0.503400,0.503500,0.503500,0.503900,0.503900,0.503600,0.503500,0.502800,0.502400,0.502400,0.502200,0.502100,0.501700,0.501600,0.501500,0.501400,0.501300,0.501300,0.500300,0.500200,0.500200,0.499900,0.499400,0.499200,0.499200,0.499100,0.499000,0.498900,0.498700,1.000000,1.000000,0.456300,1.000000,0.455400,0.455400,0.455400,0.455600,0.469500,0.475600,0.475600,0.475600,0.474600,0.473700,0.473600,0.473500,0.471300,0.471400,0.471400,0.473700,0.474700,0.474800,0.476400,0.490000,0.489800,1.000000,1.000000,0.451600,0.451400,0.451200,0.451200,0.450200,0.449800,0.449700,0.449600,0.449600,0.449600,0.471000,0.471000,0.471100,0.478700,0.479600,0.480400,0.482600,0.487500,0.487600,0.487700,0.486700,0.486700,0.486800,0.487600,0.487600,0.487300,0.487200,0.487100,0.487000,1.000000,1.000000,0.447500,0.447400,0.447400,0.447200,0.445900,0.445600,0.445500,0.445400,0.445400,0.445400,1.000000,1.000000,1.000000,1.000000,1.000000,1.000000,1.000000,1.000000,1.000000,0.478400,0.479800,0.479600,0.479600,0.481400,0.481400,1.000000,0.479900,0.480000,0.480700,0.480000,1.000000,0.440200,0.440200,0.439000,0.438800,0.438700,0.438700,0.438700,0.438800,0.438900,0.439000,1.000000,1.000000,1.000000,1.000000,0.477300,0.477300,1.000000,1.000000,1.000000,0.473700,0.475500,0.475500,1.000000,1.000000,1.000000,1.000000,1.000000,1.000000,1.000000,0.444300,0.443400,0.437800,0.437600,1.000000
0.108900,0.109400,0.109600,0.111900,0.112200,0.112800,0.113800,0.114100,0.115100,0.115900,0.116000,0.117200,0.118200,0.119900,0.120300,0.121400,0.122600,0.123600,0.123900,0.124400,0.125900,0.125600,0.112100,0.109300,0.109200,0.109100,0.109100,0.109100,0.111100,0.111300,0.111400,1.000000,1.000000,1.000000,0.519800,0.519700,0.519700,0.519600,0.519600,0.518200,0.516900,0.516800,0.516600,0.516600,0.516400,0.514700,0.506500,0.506500,0.514500,0.517300,0.517300,0.515800,0.514400,0.514000,0.512500,0.512400,0.512000,0.511900,0.511800,0.511800,0.511800,0.511800,1.000000,1.000000,0.509400,0.511100,0.511700,0.511800,0.511900,0.509700,0.509700,0.509800,0.509800,0.510400,0.510000,0.509900,0.509800,0.509400,0.509200,0.508900,0.508800,0.508600,0.508600,0.507100,0.507200,0.507400,0.507300,0.507300,0.507200,0.507200,0.507300,0.507300,0.507500,0.507500,0.507500,0.507400,0.507300,0.506300,0.506000,0.505900,0.505700,0.504600,0.503800,0.503600,0.503700,0.503700,0.503900,0.503900,0.504000,0.503900,0.503900,0.503700,0.502600,0.502500,0.502200,0.502100,0.501800,0.501700,0.501600,0.501400,0.501400,0.501300,0.501200,0.500400,0.500300,0.500200,0.499400,0.499300,0.499200,0.499100,0.499000,0.499000,0.498800,0.498700,0.498600,0.455600,0.455500,0.455500,0.455500,0.455500,1.000000,0.472800,0.475600,0.475600,0.475600,1.000000,0.473800,0.473700,0.473600,0.471400,0.471400,0.471400,0.474600,0.474700,0.474700,0.476300,0.480700,0.488000,1.000000,1.000000,1.000000,0.451900,0.451400,0.451200,0.451100,0.451000,0.450600,0.450100,0.450700,0.450700,1.000000,0.471000,0.471100,0.471100,1.000000,1.000000,1.000000,0.482500,0.487600,0.487700,0.486600,0.486600,0.486600,0.486600,0.487600,0.487300,0.487200,0.487100,0.486000,1.000000,1.000000,0.447600,0.447400,0.447300,0.446300,0.446000,0.445900,1.000000,0.445500,0.445400,1.000000,1.000000,1.000000,1.000000,1.000000,1.000000,1.000000,1.000000,1.000000,1.000000,0.474400,0.478500,0.479500,0.479600,0.481500,1.000000,1.000000,1.000000,1.000000,1.000000,1.000000,1.000000,1.000000,0.440500,0.440100,0.439900,0.438700,0.438700,0.438800,0.439000,0.439000,0.439100,1.000000,1.000000,1.000000,1.000000,1.000000,1.000000,1.000000,1.000000,1.000000,1.000000,1.000000,1.000000,1.000000,1.000000,1.000000,1.000000,1.000000,1.000000,1.000000,1.000000,0.440100,0.438900,0.437700,0.437600
0.109000,0.109400,0.109600,0.112300,0.112500,0.113200,0.114000,0.114100,0.115800,0.116000,0.116800,0.118000,0.119200,0.120200,0.120400,0.121600,0.122700,0.123700,0.124100,0.124600,0.126100,0.123400,0.112000,0.109300,0.109200,0.109100,0.109100,0.109100,0.111300,0.111300,1.000000,1.000000,0.519500,0.519600,0.519700,0.519700,0.519700,0.519700,0.519600,0.519600,0.516800,0.516700,0.516600,0.516600,0.516500,0.514800,1.000000,1.000000,0.517200,0.517200,0.517200,0.515700,0.514500,0.514500,0.514500,0.514200,0.513700,0.512800,0.511800,0.511800,0.511800,0.511800,1.000000,1.000000,0.511200,0.511200,0.512200,0.512200,0.512200,0.511300,0.509800,0.509900,0.510200,0.511000,0.510800,0.510800,0.509900,0.509200,0.509200,0.509000,0.508800,0.508700,0.508600,0.507200,0.507200,0.507300,0.507300,0.507200,0.507300,0.507400,0.507600,0.507700,0.507700,0.507600,0.507500,0.507200,0.506800,0.506300,0.506000,0.504800,0.504800,0.504600,0.504500,0.503800,0.503800,0.503900,0.503900,0.503900,0.503900,0.503900,0.503900,0.503800,0.503700,0.503200,0.502200,0.502000,0.501800,0.501700,0.501600,0.501500,0.501400,0.501300,0.501200,0.501100,0.501000,0.500000,0.499400,0.499300,0.499300,0.499200,0.499200,0.499100,0.499000,0.498900,0.498700,1.000000,1.000000,0.455600,0.455900,0.456300,1.000000,0.471600,0.475700,0.475700,0.475700,0.475600,0.473800,0.473700,0.473700,0.471400,0.471300,0.471500,0.474600,0.474700,0.474700,0.474700,0.474700,0.475500,0.475500,0.451900,0.452000,0.452000,0.452000,0.452000,0.451100,0.451100,0.450900,0.450800,0.450800,0.450800,1.000000,0.470000,0.469500,1.000000,1.000000,1.000000,1.000000,1.000000,1.000000,1.000000,1.000000,1.000000,1.000000,1.000000,1.000000,1.000000,1.000000,0.485800,1.000000,1.000000,1.000000,1.000000,1.000000,1.000000,0.446300,1.000000,1.000000,1.000000,1.000000,1.000000,1.000000,1.000000,1.000000,1.000000,1.000000,1.000000,1.000000,1.000000,1.000000,1.000000,0.468800,0.474400,0.476200,0.481400,0.481500,0.481500,1.000000,1.000000,1.000000,1.000000,1.000000,1.000000,0.441000,0.441000,0.441100,0.441000,0.439700,0.438800,0.438800,0.439000,0.439200,0.439200,1.000000,1.000000,1.000000,1.000000,1.000000,1.000000,1.000000,1.000000,1.000000,1.000000,1.000000,1.000000,1.000000,1.000000,1.000000,1.000000,1.000000,1.000000,0.443400,0.443600,0.441900,0.440200,0.438400,0.438000
0.109300,0.109500,0.109800,0.112400,0.112600,0.113900,0.114100,0.114100,0.115900,0.116000,0.117600,0.118200,0.119600,0.120400,0.120500,0.121900,0.122700,0.123800,0.124500,0.125900,0.126200,0.120700,0.111800,0.109100,0.109000,0.109000,0.109000,0.109000,1.000000,1.000000,1.000000,1.000000,0.519500,0.519600,0.519700,0.519700,0.519700,0.519700,0.518200,0.517100,0.516700,0.516600,0.516600,0.516500,0.516500,0.515600,1.000000,1.000000,0.514000,0.517000,0.517000,0.516800,0.515700,0.514500,0.514500,0.514600,0.514000,0.513800,0.511800,0.511800,0.511800,1.000000,1.000000,1.000000,0.511100,0.512200,0.512400,0.512400,0.512300,0.512100,0.512000,0.511300,0.511100,0.511000,0.510900,0.510800,0.510700,0.509200,0.509200,0.509000,0.510700,0.510700,0.508800,0.507400,0.507400,0.507300,0.507200,0.507200,0.507200,0.507600,0.507700,0.507800,0.507800,0.507700,0.507600,0.506900,0.506600,0.506500,0.505800,0.504900,0.504800,0.504700,0.504600,0.504000,0.503900,0.503900,0.503800,0.503800,0.503800,0.503800,0.503800,0.503700,0.503500,0.502800,0.502100,0.502000,0.501700,0.501600,0.501500,0.501400,0.501300,0.501300,0.501200,0.501200,0.501100,0.499900,0.499500,0.499400,0.499300,0.499300,0.499200,0.499200,0.499100,0.498800,0.498600,0.456100,0.455800,0.455800,0.457300,0.457300,0.458400,0.471600,0.475900,0.476000,0.475900,0.473800,0.473700,0.473700,0.473700,0.473700,0.473800,0.474500,0.475100,0.474700,0.474700,0.474700,0.474700,1.000000,0.466800,0.452000,0.452000,1.000000,0.452200,0.452200,0.452000,0.451400,0.451100,0.450900,0.450800,0.450800,1.000000,1.000000,1.000000,1.000000,1.000000,1.000000,1.000000,1.000000,1.000000,1.000000,1.000000,1.000000,1.000000,1.000000,1.000000,1.000000,1.000000,1.000000,1.000000,1.000000,1.000000,1.000000,1.000000,1.000000,1.000000,1.000000,1.000000,1.000000,1.000000,1.000000,1.000000,1.000000,1.000000,1.000000,1.000000,1.000000,1.000000,1.000000,1.000000,1.000000,1.000000,0.468800,0.473400,0.479500,0.481400,1.000000,1.000000,1.000000,1.000000,1.000000,1.000000,1.000000,0.441200,0.441200,0.441200,0.441200,0.441100,0.441100,0.439600,0.439300,0.439400,0.439400,1.000000,1.000000,1.000000,1.000000,1.000000,1.000000,1.000000,1.000000,1.000000,1.000000,0.440800,0.440700,0.440500,0.437300,0.437300,0.437400,0.437900,0.438100,0.440400,0.442600,0.440300,0.438600,0.437900,0.437800
0.109300,0.109600,0.110000,0.112500,0.112600,0.114000,0.114100,0.114200,0.116200,0.116300,0.118000,0.118100,0.119500,0.120400,0.120500,0.122100,0.123000,0.123900,0.124700,0.126000,0.126300,0.117000,0.111700,0.109000,0.109000,0.109000,0.109000,0.110100,0.111700,1.000000,1.000000,1.000000,0.519700,0.519700,0.519700,0.519700,0.519700,0.518200,0.518000,0.517100,0.516700,0.516700,0.516700,0.516700,0.516700,0.516500,1.000000,1.000000,0.514000,0.516900,0.516800,0.516800,0.516700,0.516700,0.516700,0.516200,0.515600,0.515600,0.513800,0.513600,0.513600,0.512400,1.000000,0.512200,0.512200,0.512300,0.512500,0.512400,0.512300,0.512000,0.512000,0.511800,0.511100,0.511000,0.510800,0.510700,0.510600,0.509200,0.509200,0.509200,0.510800,0.510700,0.508800,0.507400,0.507400,0.507300,0.507000,0.507000,0.507000,0.507400,0.507600,0.507700,0.507800,0.507800,0.507700,0.506800,0.506600,0.506500,0.506400,0.505700,0.505100,0.504900,0.504800,0.504700,0.503900,0.503800,0.503700,0.503700,0.503700,0.503700,0.503700,0.503600,0.502700,0.502500,0.502100,0.502000,0.501700,0.501600,0.501400,0.501300,0.501300,0.501300,0.501300,0.501200,0.501100,0.501000,0.500800,0.500200,0.500100,0.500000,0.499600,0.499500,0.499200,0.498600,0.498500,1.000000,1.000000,0.457400,0.457400,0.457400,0.458400,0.471500,0.475700,0.475700,0.475600,0.473600,0.473600,0.473600,0.473600,0.473700,0.474900,0.475200,0.475200,0.474800,0.473100,0.471300,0.468800,0.466800,0.465200,1.000000,1.000000,0.452100,0.452200,0.452200,0.451900,0.451400,0.451100,0.451000,1.000000,1.000000,1.000000,0.316300,1.000000,1.000000,1.000000,1.000000,1.000000,1.000000,1.000000,1.000000,1.000000,1.000000,0.306800,0.306800,1.000000,0.301200,0.300300,0.300100,0.299900,0.298700,0.297800,0.296600,0.296500,0.296400,0.296500,0.296600,0.296700,0.296800,0.296800,0.296900,1.000000,1.000000,1.000000,1.000000,1.000000,1.000000,1.000000,1.000000,1.000000,1.000000,1.000000,0.468600,1.000000,1.000000,1.000000,1.000000,1.000000,1.000000,1.000000,1.000000,1.000000,1.000000,0.441300,0.441200,0.441200,0.441200,0.441200,0.441200,0.441200,0.440400,0.440400,0.440500,0.440700,0.440900,0.440900,1.000000,0.440400,0.440400,0.440400,0.440500,0.440600,0.440800,1.000000,0.440400,0.439300,0.437300,0.437300,0.437400,0.437800,0.438000,0.440400,0.440400,0.438400,0.438200,0.437800,0.437800
0.109300,0.109600,0.110200,0.112400,0.112700,0.114000,0.114200,0.114400,0.116300,0.116400,0.118100,0.118100,0.119300,0.120400,0.120600,0.122500,0.123500,0.124000,0.124800,0.126400,0.126400,0.117000,0.111700,0.109000,0.109000,0.109000,1.000000,1.000000,1.000000,1.000000,1.000000,1.000000,0.519700,0.519700,0.519800,0.519800,0.519800,0.518300,0.518000,0.517700,0.516900,0.516800,0.516800,0.516800,0.516800,0.516800,1.000000,1.000000,0.516700,0.516700,0.516700,0.516700,0.516700,0.516600,0.517600,0.517100,0.515600,0.515600,0.515500,0.515500,0.513500,0.512500,0.512400,0.512300,0.512300,0.512400,0.512600,0.512500,0.512200,0.511000,0.511100,0.511500,0.511200,0.511000,0.510800,0.510700,0.510600,0.509400,0.509200,0.510800,0.510800,0.510800,0.509000,0.507500,0.507400,0.507300,0.506900,0.507000,0.507000,0.507300,0.507500,0.507700,0.507800,0.507900,0.507800,0.507500,0.506600,0.506500,0.506400,0.506400,0.506200,0.505100,0.505000,0.504900,0.503900,0.503800,0.503700,0.503700,0.503600,0.503600,0.503600,0.502700,0.502600,0.502400,0.502100,0.502000,0.501600,0.501500,0.501400,0.501300,0.501300,0.501300,0.501300,0.501300,0.501200,0.501000,0.500900,0.500300,0.500200,0.500100,0.499800,0.499600,0.499400,0.498600,0.498500,1.000000,0.457500,0.457400,0.457400,0.457400,0.457500,0.469800,0.475600,0.475600,0.475600,0.473600,0.473500,0.473500,0.473600,0.473800,0.475000,0.475200,0.475200,0.474800,0.473100,0.471300,0.468800,1.000000,0.465200,1.000000,1.000000,1.000000,1.000000,1.000000,0.451900,1.000000,1.000000,1.000000,1.000000,1.000000,1.000000,0.311800,0.309400,0.309400,0.309300,0.307000,0.306200,0.304600,0.304400,0.304300,0.302600,0.302200,0.301500,0.300500,0.299200,0.298800,0.298800,0.298800,0.298700,0.297600,0.296600,0.296500,0.296300,0.295600,0.295600,0.295500,0.294600,0.294600,0.294600,0.294900,0.295500,1.000000,1.000000,1.000000,1.000000,1.000000,1.000000,1.000000,1.000000,1.000000,1.000000,1.000000,1.000000,1.000000,1.000000,1.000000,1.000000,1.000000,0.443000,1.000000,0.441900,0.441500,0.441300,0.441300,0.441300,0.441300,0.441300,0.441300,0.441300,0.440400,0.440400,0.440600,0.440800,0.440900,0.440900,0.441000,0.440300,0.440300,0.440400,0.440500,0.440600,0.440700,0.440800,0.439200,0.439200,0.437400,0.437400,0.437400,0.437600,0.437900,0.438200,0.438200,0.438200,0.438000,0.437800,0.437800
0.109500,0.110000,0.110500,0.112200,0.112300,0.113800,0.114300,0.114700,0.116200,0.117000,0.118200,0.118200,0.118800,0.120500,0.121600,0.123400,0.123800,0.124200,0.125400,0.126400,0.126400,0.116900,0.112700,0.110000,0.109000,0.109000,1.000000,1.000000,1.000000,1.000000,1.000000,1.000000,0.519800,0.519800,0.519800,0.519800,0.519800,0.518600,0.518200,0.518000,0.517100,0.517000,0.516900,0.516900,0.516900,0.516800,1.000000,1.000000,0.516600,0.516600,0.516600,0.516600,0.516500,0.517600,0.517600,0.517500,0.515700,0.515700,0.515600,0.515600,0.515300,0.512600,0.512600,0.512500,0.512500,0.512600,0.514000,0.514000,0.511000,0.511100,0.511100,0.511300,0.511200,0.511100,0.510800,0.510700,0.510700,0.510700,0.511000,0.511000,0.510900,0.510900,0.509100,0.509000,0.507500,0.507400,0.506900,0.506900,0.506900,0.507200,0.507400,0.507700,0.508000,0.508000,0.508200,0.508400,0.507400,0.507000,0.506500,0.506600,0.506800,0.506100,0.505100,0.505000,0.504900,0.503800,0.503700,0.503600,0.503600,0.503400,0.503200,0.502700,0.502600,0.502500,0.502200,0.502100,0.501600,0.501400,0.501300,0.501300,0.501300,0.501500,0.501400,0.501300,0.501200,0.501000,0.501000,0.500600,0.500500,0.500400,0.500200,0.500100,0.499500,0.499000,0.498700,1.000000,0.457500,0.457500,0.457500,0.457500,0.457500,0.469800,0.475500,0.475500,0.475500,0.473600,0.473500,1.000000,1.000000,1.000000,1.000000,1.000000,1.000000,1.000000,1.000000,1.000000,1.000000,1.000000,1.000000,0.305600,1.000000,0.305400,1.000000,1.000000,1.000000,1.000000,1.000000,0.305000,0.305000,0.305100,0.305100,0.303800,0.303900,0.303900,0.303800,0.303700,0.302400,0.300600,0.300700,0.300800,0.300700,0.300600,0.300300,0.299000,0.298700,0.297400,0.297200,0.297200,0.297100,0.296800,0.295700,0.295600,0.295600,0.295300,0.294700,0.294600,0.294500,0.294200,0.294000,0.293900,0.295200,0.295400,1.000000,1.000000,1.000000,1.000000,1.000000,1.000000,1.000000,1.000000,1.000000,1.000000,1.000000,1.000000,0.443300,0.443300,0.443300,1.000000,1.000000,0.442600,0.442300,1.000000,0.441500,0.441500,0.441500,0.441500,0.441400,0.441400,0.441400,0.441500,0.441500,0.441000,0.441000,0.441100,0.441100,0.441000,0.440300,0.440300,0.440300,0.440500,0.440600,0.440700,0.440800,0.439200,0.439200,0.437400,0.437400,0.437500,0.437500,0.437800,0.438200,0.438200,0.438100,0.438000,0.437800,0.437800
0.110000,0.110600,0.110900,0.112200,0.112300,0.113600,0.114900,0.115000,0.116000,0.117400,0.118200,0.118200,0.118400,0.120600,0.121800,0.123500,0.123600,0.123900,0.126700,0.127100,0.127200,0.116800,0.112700,0.110600,0.110500,0.110500,0.110700,1.000000,1.000000,1.000000,1.000000,1.000000,1.000000,0.520000,0.520000,0.521300,0.520300,0.519200,0.519000,0.518900,0.518300,0.517100,0.517000,0.517000,0.517000,0.516900,1.000000,1.000000,0.516600,0.516600,0.516600,0.516500,0.516500,0.516500,0.517600,0.516100,0.515900,0.515800,0.515700,0.515700,0.512800,0.512700,0.512600,0.512600,0.512600,0.513000,0.514000,0.514000,0.511100,0.511100,0.511200,0.511300,0.511200,0.511100,0.510900,0.510800,0.510700,0.510800,0.511100,0.511000,0.511000,0.511000,0.509200,0.509100,0.507700,0.507100,0.506900,0.506900,0.506900,0.507200,0.508100,0.508200,0.508200,0.508300,0.508500,0.508600,0.508800,0.508800,0.507200,0.507200,0.507000,0.507000,0.507000,0.505300,0.505200,0.505200,0.503700,0.503600,0.503600,0.503300,0.503100,0.502800,0.502700,0.502600,0.502500,0.502500,0.502400,0.502300,0.502200,0.502100,0.502000,0.501900,0.501700,0.501500,0.501400,0.501200,0.501000,0.500700,0.500600,0.500500,0.500400,0.500400,0.499800,0.499200,0.499000,0.498900,0.457500,0.457500,0.457500,0.457600,0.457600,0.467200,0.475400,0.475400,0.473700,0.473600,1.000000,1.000000,1.000000,1.000000,1.000000,1.000000,1.000000,1.000000,1.000000,1.000000,0.307400,0.307100,0.305000,0.304500,0.304300,0.304000,0.303300,0.303200,0.303300,0.303700,0.303800,0.303800,0.303800,0.303700,0.302200,0.301200,0.300700,0.300700,0.300700,0.300600,0.300600,0.300100,0.299400,0.299400,0.299300,0.299200,0.299000,0.297900,0.297600,0.296500,0.296400,0.296200,0.295900,0.295800,0.295700,0.295600,0.295500,0.294800,0.294700,0.294600,0.294500,0.294100,0.294000,0.293800,0.293300,0.293000,0.292900,0.292900,0.292800,0.292800,0.291500,0.290700,0.290700,0.290700,0.290800,1.000000,1.000000,0.443400,0.443400,0.443300,0.443300,0.443100,0.442900,0.442700,0.442400,0.442300,0.441700,0.441600,0.441600,0.441600,0.441500,0.441400,0.441400,0.441500,0.441600,0.441700,0.441900,0.442500,0.441200,0.441200,0.440400,1.000000,1.000000,1.000000,1.000000,1.000000,1.000000,1.000000,1.000000,0.437700,0.437600,1.000000,1.000000,1.000000,1.000000,0.438200,0.438100,0.438000,0.437900,0.437800
0.110200,0.110800,0.110900,0.112200,0.112300,0.113600,0.115100,0.115200,0.116000,0.117500,0.118200,0.118300,0.118500,0.120600,0.121900,0.123400,0.123500,0.123800,0.127000,0.127200,0.127200,0.116700,0.110600,0.110600,0.110600,0.110600,1.000000,1.000000,1.000000,1.000000,1.000000,1.000000,1.000000,0.520100,0.521600,0.521400,0.521200,0.519400,0.519300,0.519200,0.518400,0.517100,0.517100,0.517000,0.517000,0.516200,0.516300,1.000000,0.518400,0.518200,0.517000,0.516500,0.516400,0.516400,0.516300,0.516100,0.516000,0.515900,0.515900,0.515800,0.512800,0.512800,1.000000,1.000000,0.513400,0.514200,0.514200,0.514200,0.512100,0.511200,0.511300,0.511500,0.511400,0.511200,0.511000,0.511000,0.511500,0.511300,0.511200,0.511100,0.511100,0.511100,0.511200,0.511300,0.509400,0.507800,0.507000,0.506900,0.507000,0.509400,0.508200,0.508100,0.508200,0.508200,0.508600,0.508600,0.508800,0.508100,0.507300,0.507200,0.507100,0.507000,0.507000,0.505400,0.505300,0.505300,0.505200,0.503700,0.503600,0.503300,0.503100,0.502800,0.502800,0.502700,0.502600,0.502600,0.502600,0.502500,0.502300,0.502200,0.502100,0.502100,0.502100,0.501800,0.501600,0.501300,0.501200,0.500700,0.500600,0.500600,0.500600,0.500600,0.500600,0.500600,1.000000,0.500400,1.000000,0.457400,0.457500,0.457600,0.457600,1.000000,0.475400,1.000000,1.000000,1.000000,1.000000,0.307100,0.307000,0.306900,0.306800,0.305700,0.305600,0.305500,0.305500,0.306900,0.305800,0.304700,0.304500,0.304400,0.303900,0.303300,0.302900,0.303000,0.303000,0.303100,0.303100,0.303100,0.303100,0.301300,0.300200,0.300200,0.300300,0.300600,0.300600,0.300500,0.299400,0.299300,0.299200,0.299200,0.299200,0.299100,0.298600,0.297700,0.297400,0.296500,0.296400,0.296200,0.296000,0.295900,0.295700,0.295700,0.295400,0.294800,0.294800,0.294600,0.294600,0.294100,0.293900,0.293400,0.293100,0.293000,0.292900,0.292900,0.292800,0.292800,0.291400,0.290700,0.290700,0.290800,0.290800,0.290900,1.000000,0.443500,0.443500,0.443400,0.443300,0.443100,0.443000,0.442800,0.442500,0.442300,0.442100,0.442100,0.442000,0.441800,0.441600,0.441300,0.441200,0.441300,0.441600,0.441800,0.442000,0.442500,0.441200,0.440700,0.440400,1.000000,1.000000,1.000000,1.000000,1.000000,1.000000,1.000000,1.000000,1.000000,1.000000,1.000000,1.000000,1.000000,1.000000,1.000000,0.438100,0.438100,0.438000,0.438500
0.110300,0.110700,0.110900,0.112500,0.113100,0.114000,0.115400,0.115900,0.116000,0.117600,0.118200,0.118400,0.118900,0.120700,0.122000,0.123400,0.123500,0.124100,0.127100,0.127200,0.127200,0.116500,0.110700,0.110700,0.110600,0.110700,1.000000,1.000000,1.000000,1.000000,1.000000,1.000000,1.000000,0.521700,0.521700,0.521500,0.519500,0.519500,0.519400,0.519400,0.519200,0.518400,0.517100,0.517000,0.517000,0.516400,0.516400,1.000000,0.518700,0.518600,0.518600,0.518300,0.516400,0.516300,0.516100,0.516000,0.516000,0.515900,0.515900,0.515900,0.512900,0.512800,0.512800,1.000000,0.514200,0.514200,0.514200,0.514200,0.512900,0.512000,0.512000,0.511900,0.512000,0.511800,0.511400,0.511400,0.511500,0.511300,0.511100,0.511000,0.511100,0.511200,0.511200,0.511400,0.511200,0.508000,0.508000,0.507900,0.508300,0.509600,0.509600,0.508100,0.508100,0.508000,0.508500,0.508600,0.508400,0.507600,0.507400,0.507300,0.507200,0.507100,0.505800,0.505700,0.505600,0.505400,0.505300,0.505200,0.505100,0.503400,0.503200,0.502900,0.502900,0.502900,0.502900,0.503000,0.502900,0.502800,0.502700,0.502400,0.502300,0.502300,0.502200,0.502200,0.501800,0.501600,0.501400,0.500700,0.500600,0.500600,0.500600,0.500600,0.500600,0.500600,0.500600,1.000000,1.000000,1.000000,1.000000,1.000000,1.000000,1.000000,1.000000,1.000000,1.000000,1.000000,0.307200,0.307100,0.306900,0.306800,0.306700,0.305700,0.305600,0.305500,0.305400,0.305400,0.304800,0.304700,0.304500,0.304400,0.303800,0.302800,0.302900,0.302900,0.303000,0.303000,0.303000,0.303000,0.302600,0.300200,0.300200,0.300200,0.300200,0.300400,0.300400,0.299300,0.299100,0.299100,0.299100,0.299000,0.299000,0.298000,0.297800,0.297700,0.296600,0.296500,0.296400,0.296200,0.296000,0.295900,0.295800,0.295700,0.295600,0.294800,0.294800,0.294700,0.294600,0.294200,0.293800,0.293200,0.293100,0.293000,0.292900,0.292900,0.292800,0.292800,0.291800,0.291200,0.290800,0.290800,0.290900,0.290900,1.000000,0.443600,0.443600,0.443500,0.443300,0.443100,0.443000,0.442800,0.442000,0.442000,0.442100,0.442100,0.442000,0.441900,0.441500,1.000000,1.000000,1.000000,0.441000,0.441200,0.441200,0.441200,0.441100,0.440400,1.000000,1.000000,1.000000,1.000000,0.322900,0.322900,0.321100,0.319400,0.319400,0.320800,0.323100,1.000000,1.000000,1.000000,1.000000,1.000000,1.000000,1.000000,0.438500,0.438500
0.110400,0.110600,0.110900,0.112900,0.113200,0.114100,0.115600,0.115800,0.116000,0.117800,0.118200,0.118800,0.119700,0.120800,0.121900,0.123400,0.123500,0.124400,0.127100,0.127100,0.127100,0.116400,0.110800,0.110700,0.110800,0.111100,1.000000,1.000000,1.000000,1.000000,1.000000,1.000000,1.000000,0.521700,0.521700,0.520900,0.519500,0.519500,0.519400,0.519400,0.519200,0.519200,0.517100,0.517000,0.517000,0.516600,0.518400,1.000000,1.000000,0.518600,0.518500,0.518300,0.516400,0.516200,0.516000,0.516000,0.515900,0.515900,0.515900,0.515900,0.515500,0.512800,0.512800,1.000000,0.514200,0.514300,0.514300,0.514100,0.512900,0.512200,0.512200,0.512100,0.512100,0.513200,0.511700,0.511600,0.511300,0.511000,0.510900,0.510900,0.510900,0.511200,0.511300,0.511400,0.511400,0.511300,0.509100,0.509100,0.509300,0.509800,0.509700,0.508000,0.507900,0.507800,0.507800,0.507600,0.507600,0.507600,0.507400,0.507400,0.507200,0.507100,0.505800,0.505700,0.505700,0.505600,0.505400,0.505300,0.505100,0.505000,0.504900,0.504800,0.504800,0.503000,0.503000,0.503100,0.503000,0.503000,0.502900,0.502800,0.502800,0.502800,0.502600,0.502400,0.502200,0.501900,0.501700,0.500700,0.500600,0.500600,0.500600,0.500700,0.500700,0.500600,0.500600,1.000000,1.000000,1.000000,1.000000,1.000000,1.000000,1.000000,0.307900,0.307800,0.307900,0.307900,0.307100,0.307000,0.306900,0.306700,0.306500,0.305800,0.305700,0.305400,0.305300,0.305200,0.304800,0.304700,0.304500,0.304400,0.303800,0.302800,0.302800,0.302900,0.303000,0.303000,0.303000,0.302900,0.302200,0.300200,0.300200,0.300200,0.300000,0.299700,0.299400,0.299200,0.299100,0.299000,0.299000,0.299000,0.299000,0.298000,0.297900,0.297800,0.296600,0.296500,0.296400,0.296300,0.296100,0.296000,0.295900,0.295800,0.295800,0.294900,0.294800,0.294800,0.294800,0.294800,0.293900,0.293200,0.293100,0.293000,0.293000,0.292900,0.292900,0.292800,0.292600,0.291500,0.291000,0.291000,0.291100,1.000000,1.000000,0.443700,0.443600,0.443600,0.443400,0.443000,0.442900,0.442800,0.441800,0.441800,0.441800,0.442100,0.442100,0.442100,1.000000,1.000000,1.000000,1.000000,1.000000,0.441000,0.441100,0.441200,0.441100,0.440300,0.440300,1.000000,1.000000,0.323000,0.322900,0.322900,0.321100,0.319400,0.319400,0.320700,0.323100,0.323100,0.323000,1.000000,1.000000,1.000000,1.000000,1.000000,0.438400,1.000000
0.110400,0.110600,0.111300,0.113200,0.113400,0.114300,0.115600,0.115800,0.116500,0.117800,0.119400,0.119600,0.120600,0.121000,0.121800,0.123500,0.123600,0.124600,0.127000,0.127000,0.124600,0.115700,0.111000,0.111000,0.112500,0.112500,0.112600,1.000000,1.000000,1.000000,1.000000,1.000000,0.521700,0.521700,0.521700,0.520700,0.519400,0.519400,0.519400,0.519200,0.519100,0.519100,0.519000,0.518200,0.518200,0.518200,0.518200,1.000000,1.000000,0.518400,0.518400,0.517800,0.516400,0.516000,0.515900,0.515800,0.515800,0.515800,0.515800,0.515800,0.515800,0.514200,1.000000,1.000000,0.515400,0.515400,0.515400,0.514100,0.512600,0.512300,0.512300,0.512200,0.513200,0.513200,0.512200,0.511100,0.511100,0.510900,0.510900,0.510800,0.510800,0.511000,0.511400,0.511400,0.511400,0.511400,0.509100,0.509200,0.510000,0.510000,0.509900,0.508300,0.507800,0.507700,0.507600,0.507600,0.507600,0.507600,0.507400,0.507400,0.507200,0.507200,0.505800,0.505800,0.505700,0.505700,0.505600,0.505400,0.505100,0.505000,0.504900,0.504800,0.504800,0.504800,0.503300,0.503300,0.503200,0.503100,0.503100,0.503100,0.503000,0.503000,0.502800,0.502600,0.502300,0.502000,0.501800,0.501600,0.501500,0.500900,0.500800,0.500800,0.500800,0.500700,0.500600,1.000000,1.000000,0.308700,0.308600,0.308400,0.308200,0.308100,0.307900,0.307800,0.307900,0.307900,0.307900,0.306900,0.306800,0.306600,0.306400,0.306000,0.305800,0.305400,0.305200,0.305100,0.304800,0.304700,0.304500,0.304400,0.304200,0.302900,0.302900,0.302900,0.303000,0.303000,0.302900,0.301700,0.301200,0.300300,0.300200,0.300100,0.299800,0.299700,0.299400,0.299200,0.299100,0.299100,0.299000,0.299000,0.298900,0.298100,0.298100,0.297900,0.297500,0.296700,0.296700,0.296600,0.296300,0.296200,0.296100,0.296000,0.296000,0.296000,0.296000,0.294900,0.295000,0.295000,0.295000,0.295000,0.293200,0.293100,0.293100,0.293100,0.293000,0.292900,0.292600,0.291900,0.291300,0.291300,0.291200,1.000000,1.000000,0.443800,0.443700,0.443700,0.443400,0.442900,0.442600,0.442000,0.441800,0.441800,0.441700,1.000000,1.000000,1.000000,0.338800,0.337900,0.340200,1.000000,1.000000,1.000000,0.441100,0.441100,0.441100,0.440200,0.440300,1.000000,0.324500,1.000000,0.323000,0.322700,0.322100,0.319500,0.319500,0.320700,0.323000,0.323000,0.323000,0.321600,0.318100,0.318100,0.318100,1.000000,1.000000,0.438200
0.110500,0.110700,0.111700,0.113500,0.114200,0.114600,0.115600,0.115900,0.116700,0.117500,0.119500,0.119600,0.120600,0.121200,0.121900,0.123500,0.124800,0.124900,0.126900,0.126800,0.121700,0.113300,0.111100,0.111100,0.112600,0.112600,0.112600,1.000000,1.000000,1.000000,1.000000,1.000000,1.000000,0.521700,0.521700,0.521700,0.520600,0.519300,0.519200,0.519100,0.519000,0.519000,0.518900,0.518900,0.518200,0.518200,1.000000,1.000000,0.517200,0.517200,0.517200,0.517100,0.516100,0.515900,0.515800,0.515700,0.515700,0.515700,0.515700,0.515800,0.515800,0.514900,1.000000,0.513900,0.515400,0.515400,0.515300,0.514100,0.512500,0.512400,0.512300,0.512200,0.512200,0.512200,0.512200,0.511100,0.511000,0.510900,0.510800,0.510700,0.510600,0.510600,0.511400,0.511400,0.511400,0.511400,0.511300,0.510400,0.510300,0.510200,0.510100,0.509000,0.509000,0.507600,0.507600,0.507500,0.508300,0.508500,0.508500,0.508500,0.507300,0.507300,0.507200,0.505800,0.505800,0.505800,0.505900,0.506100,0.505700,0.505000,0.505000,0.504900,0.504800,0.504800,0.504800,0.504800,0.503500,0.503200,0.503200,0.503100,0.503100,0.503000,0.502900,0.502700,0.502400,0.501600,0.501600,0.501600,0.501600,0.501600,0.501100,0.500900,0.500800,0.500700,0.500600,1.000000,0.309000,0.308700,0.308600,0.308400,0.308200,0.308100,0.307900,0.307900,0.307900,0.307900,0.307900,0.306900,0.306800,0.306700,0.306600,0.306400,0.306300,0.305600,0.305200,0.305100,0.304800,0.304800,0.304600,0.304500,0.304300,0.304300,0.304100,0.303000,0.303000,0.303000,0.302900,0.301500,0.301300,0.301200,0.301100,0.301000,0.300800,0.300400,0.299400,0.299300,0.299100,0.299100,0.299100,0.299000,0.298900,0.298400,0.298200,0.298100,0.297900,0.297000,0.296900,0.296800,0.296600,0.296400,0.296200,0.296200,0.296100,0.296100,0.296100,0.296000,0.295900,0.295100,0.295100,0.295100,0.293700,0.293300,0.293300,0.293300,0.293400,0.293500,0.292800,0.291900,0.291600,0.291500,0.291400,0.291400,1.000000,0.443800,0.443700,0.443700,0.442500,0.442400,0.442200,0.442000,0.441700,0.441300,1.000000,0.348500,0.343700,0.343000,0.340300,0.338600,0.340200,0.340100,0.340100,1.000000,1.000000,0.441100,0.440200,0.440200,1.000000,0.327200,0.325300,0.324500,0.324300,0.323100,0.322100,0.319500,1.000000,0.321700,0.323000,0.323000,0.323000,0.323100,0.318100,0.318100,0.316700,0.316700,1.000000,0.438200
0.110300,0.110700,0.111300,0.113500,0.114100,0.115000,0.115900,0.116800,0.117200,0.117600,0.119400,0.120200,0.120600,0.121800,0.122600,0.123400,0.125000,0.125300,0.126400,0.122800,0.117900,0.112200,0.111100,0.111200,0.111200,0.112700,0.112900,1.000000,1.000000,1.000000,1.000000,1.000000,0.520000,0.520000,0.521600,0.521700,0.521700,0.519200,0.518900,0.518900,0.518800,0.518800,0.518700,0.518500,0.518300,0.518100,0.518000,1.000000,0.517100,0.517100,0.517200,0.517200,0.516000,0.515900,0.515800,0.515700,0.515600,0.515700,0.515700,0.515800,0.515800,0.515000,1.000000,0.513600,0.515400,0.515300,0.515200,0.514600,0.512500,0.512300,0.512300,0.512200,0.512000,0.512200,0.511300,0.511200,0.511100,0.511000,0.510900,0.510600,0.510600,0.510600,0.510600,0.511500,0.511400,0.511400,0.511400,0.510400,0.510300,0.510300,0.509000,0.509000,0.509000,0.507700,0.507600,0.507600,0.508500,0.508500,0.508500,0.508500,0.507300,0.507300,0.507300,0.505800,0.505900,0.505900,0.506200,0.506400,0.506500,0.505000,0.505000,0.505000,0.504900,0.504900,0.504800,0.504800,0.504800,0.504800,0.503300,0.503200,0.503200,0.503100,0.503100,0.502900,0.501600,0.501500,0.501500,0.501600,0.501600,0.501700,0.501800,0.502000,0.501100,0.501000,0.500700,1.000000,0.309200,0.308800,0.308600,0.308400,0.308200,0.308100,0.308000,0.308000,0.308000,0.308000,0.307900,0.307000,0.306800,0.306800,0.306700,0.306600,0.306500,0.306400,0.305300,0.305000,0.304800,0.304800,0.304600,0.304500,0.304400,0.304300,0.304200,0.303100,0.303000,0.303000,0.302900,0.301600,0.301600,0.301400,0.301300,0.301200,0.301100,0.301000,0.300600,0.300400,0.299700,0.299700,0.299600,0.299300,0.299100,0.298600,0.298500,0.298300,0.298200,0.297900,0.297500,0.297200,0.296800,0.296600,0.296500,0.296400,0.296300,0.296200,0.296200,0.296100,0.296000,0.295300,0.295200,0.295100,0.295000,0.295000,0.293600,0.293600,0.293600,0.293500,0.293300,0.292000,0.291800,0.291600,0.291600,0.291500,1.000000,1.000000,0.443700,0.443700,0.442400,0.442400,0.442200,1.000000,0.441300,0.441000,1.000000,0.348500,0.345200,0.343000,0.343000,0.340200,0.340200,0.336500,0.336500,1.000000,1.000000,1.000000,1.000000,1.000000,1.000000,0.327200,0.327200,0.325800,0.325600,0.325600,0.323700,1.000000,1.000000,0.323100,0.323100,0.323000,0.323000,0.324200,0.324200,1.000000,0.318100,0.318100,1.000000,1.000000
0.110400,0.111000,0.111200,0.113500,0.113700,0.114700,0.115900,0.117100,0.117300,0.117700,0.119200,0.120300,0.120500,0.122000,0.122800,0.123900,0.125300,0.125500,0.126100,0.118000,0.113800,0.111000,0.111000,0.111100,0.111100,0.111100,0.113100,1.000000,1.000000,1.000000,1.000000,1.000000,1.000000,1.000000,0.520100,0.521700,0.522100,0.521100,0.518900,0.518800,0.518800,0.518700,0.518600,0.518600,0.518400,0.518100,0.518000,1.000000,1.000000,0.517100,0.517100,0.517100,0.517200,0.516000,0.515900,0.515800,0.515700,0.515700,0.515700,0.515700,0.515800,0.514900,0.513400,0.513400,0.515200,0.515200,0.515100,0.515000,0.512700,0.512300,0.512000,0.511800,0.511600,0.511500,0.511400,0.511300,0.511300,0.511200,0.511200,0.510600,0.510600,0.510600,0.510500,0.511600,0.511500,0.511400,0.510500,0.510400,0.510400,0.510300,0.509100,0.509000,0.509000,0.508900,0.508600,0.508500,0.508600,0.508600,0.508600,0.508600,0.507300,0.507300,0.507300,0.505900,0.506000,0.506000,0.506600,0.506600,0.506700,0.505100,0.505000,0.505000,0.504900,0.504900,0.504900,0.504900,0.504900,0.504800,0.504800,0.503300,0.503200,0.503200,0.503100,0.503000,0.501600,0.501500,0.501500,0.501500,0.501700,0.501900,0.502000,0.502000,0.501200,0.501200,0.501100,1.000000,0.310300,0.310100,0.309800,0.309300,0.308300,0.308200,0.308100,0.308100,0.308100,0.308000,0.307800,0.307400,0.307100,0.307000,0.306900,0.306800,0.306700,0.306600,0.306500,0.305100,0.304800,0.304800,0.304700,0.304600,0.304500,0.304400,0.304300,0.304100,0.303900,0.303000,0.302800,0.301700,0.301600,0.301500,0.301400,0.301300,0.301100,0.301100,0.300800,0.300600,0.300000,0.299800,0.299700,0.299500,0.299200,0.298700,0.298600,0.298500,0.298300,0.298000,0.297800,0.297600,0.296900,0.296800,0.296600,0.296500,0.296400,0.296300,0.296200,0.296100,0.295900,0.295200,0.295200,0.295100,0.295100,0.295000,0.293700,0.293700,0.293600,0.293500,0.293400,0.292300,0.292000,0.291900,0.291800,0.291600,1.000000,1.000000,1.000000,0.442600,1.000000,1.000000,1.000000,1.000000,1.000000,1.000000,1.000000,1.000000,0.348500,1.000000,1.000000,0.340200,0.340200,0.334400,0.334300,1.000000,1.000000,1.000000,1.000000,1.000000,0.328800,0.328600,0.327200,0.327200,0.325600,0.325600,0.323700,0.323600,0.323400,0.323200,0.319500,0.319500,0.319600,0.322000,0.323000,0.323000,0.318200,0.318200,0.318200,1.000000
