1.000000,1.000000,1.000000,1.000000,1.000000,1.000000,1.000000,1.000000,1.000000,1.000000,0.752300,1.000000,1.000000,1.000000,1.000000,1.000000,1.000000,1.000000,1.000000,1.000000,1.000000,1.000000,1.000000,1.000000,1.000000,1.000000,1.000000,1.000000,1.000000,1.000000,1.000000,0.757700,0.757700,0.754800,0.750200,1.000000,1.000000,0.548900,0.548900,0.550400,0.549000,0.549100,0.549200,0.549300,0.549700,0.549700,0.550400,0.550400,0.548600,0.548700,0.548800,0.548800,0.548700,0.547400,0.547400,0.547300,0.547300,0.547100,0.547000,0.546800,0.546800,0.546800,0.546900,0.547000,0.547200,0.546200,0.546100,0.546100,0.546100,0.546900,0.546800,0.546700,0.546600,0.544300,0.544300,0.544400,0.544400,0.544400,0.543100,0.543000,0.543000,0.543000,0.543000,0.543100,0.543600,0.543600,0.543300,0.541900,0.541900,0.542600,0.543700,0.543700,0.542800,0.542800,0.541800,0.541800,0.541800,0.541800,0.542200,0.542200,0.542300,0.541500,0.541400,0.541300,0.541300,0.541300,0.541300,0.541300,1.000000,0.496200,1.000000,1.000000,0.291200,0.291200,0.291300,0.291300,0.291500,0.291500,0.291600,0.291700,0.291600,0.291500,0.291400,0.291400,0.291400,0.291400,0.291600,0.291600,0.290800,0.290600,0.290400,0.290200,0.290000,0.289900,0.289900,0.289900,0.290000,0.289900,0.289800,0.289800,0.289800,0.289700,0.289600,0.289500,0.289500,0.289400,0.289300,0.289300,0.289300,0.289200,0.289200,0.289000,0.288300,0.288300,0.288200,0.288200,0.288100,0.288000,0.287900,0.287800,0.287700,0.287700,0.287600,0.287500,0.287400,0.287400,0.287300,0.287200,0.287100,0.286800,0.286700,0.286600,0.286500,0.286400,0.286300,0.286200,0.285400,0.285300,0.285300,0.285300,0.285300,0.285400,0.285400,0.285300,0.285200,0.285100,0.285000,0.284900,0.284600,0.284400,0.284000,0.283800,0.283600,0.283500,0.283400,0.283400,0.283400,0.283500,0.283600,0.283700,0.283700,0.283800,0.283800,0.283800,0.283800,1.000000,1.000000,1.000000,1.000000,0.482800,0.482900,0.483700,0.483800,0.484000,0.483800,0.483500,0.483200,0.483100,0.483000,0.482900,0.484600,0.483400,0.483300,0.483200,0.483200,0.483200,0.483200,0.483100,0.483000,0.482700,0.482600,0.482400,0.482100,0.481800,0.481600,0.481600,1.000000,1.000000,1.000000,1.000000,1.000000,1.000000,1.000000,1.000000,0.480200,0.480200,0.480200,0.480100,0.480000,0.480000,0.480000,0.480100,0.480200,0.480200,0.481300,0.481200
1.000000,1.000000,1.000000,1.000000,1.000000,1.000000,1.000000,1.000000,1.000000,1.000000,1.000000,1.000000,1.000000,1.000000,1.000000,1.000000,1.000000,1.000000,1.000000,1.000000,1.000000,1.000000,1.000000,1.000000,1.000000,1.000000,1.000000,1.000000,1.000000,1.000000,1.000000,0.757700,0.757700,0.756200,0.750600,1.000000,1.000000,0.548900,0.548900,1.000000,1.000000,0.549100,0.549200,0.549300,0.549700,0.549800,0.548700,0.548600,0.546600,0.546700,0.546700,0.548800,0.548700,0.548700,0.547400,0.547300,1.000000,0.547100,1.000000,0.546900,0.546800,0.545600,0.546800,0.546400,0.546200,0.546200,0.546200,0.546200,0.546200,0.546900,0.546800,0.546600,0.546500,0.546400,0.546400,0.546400,0.544400,0.544400,0.543100,0.543100,0.543000,0.543000,0.543000,0.543000,0.543400,0.543400,0.543200,0.541900,0.541900,0.542000,0.542100,0.542100,0.542200,0.542700,0.542600,0.541900,0.542100,0.542100,0.542200,0.542200,0.542200,0.541300,0.541300,0.541200,0.541300,0.541300,0.541200,1.000000,1.000000,0.496200,0.496200,1.000000,0.291200,0.291200,0.291300,0.291300,0.291400,0.291500,0.291600,0.291600,0.291500,0.291500,0.291300,0.291300,0.291300,0.291300,0.291400,0.290900,0.290800,0.290700,0.290400,0.290200,0.290000,0.289900,0.289900,0.289900,0.289900,0.289900,0.289800,0.289800,0.289800,0.289700,0.289600,0.289500,0.289400,0.289300,0.289200,0.289200,0.289200,0.289200,0.289200,0.289000,0.288400,0.288300,0.288200,0.288200,0.288100,0.288000,0.287900,0.287800,0.287800,0.287800,0.287700,0.287600,0.287500,0.287400,0.287400,0.287200,0.287100,0.286800,0.286700,0.286600,0.286500,0.286500,0.286400,0.286300,0.285300,0.285300,0.285200,0.285200,0.285300,0.285300,0.285300,0.285300,0.285200,0.285100,0.285000,0.284900,0.284600,0.284400,0.284000,0.283800,0.283600,0.283500,0.283400,0.283400,0.283400,0.283400,0.283500,0.283600,0.283700,0.283800,0.282900,0.283000,1.000000,1.000000,1.000000,1.000000,1.000000,0.482900,0.482900,0.483000,0.483900,0.484600,0.484600,0.483700,0.483500,0.483400,0.483300,0.483500,0.483600,0.483400,0.483300,0.483200,0.483100,0.483100,0.483100,0.483000,0.483000,0.482800,0.482600,0.482300,0.481900,0.481800,0.481600,0.481600,0.481600,1.000000,1.000000,1.000000,1.000000,1.000000,1.000000,1.000000,1.000000,0.479200,0.479200,0.479800,0.480000,0.480000,0.480000,0.480000,0.480100,0.480100,0.481300,0.481300
1.000000,1.000000,1.000000,1.000000,1.000000,1.000000,1.000000,1.000000,0.757300,1.000000,1.000000,1.000000,1.000000,1.000000,1.000000,1.000000,1.000000,1.000000,1.000000,1.000000,1.000000,1.000000,1.000000,1.000000,1.000000,1.000000,1.000000,1.000000,1.000000,1.000000,1.000000,1.000000,1.000000,1.000000,0.754800,1.000000,0.551000,0.548900,1.000000,1.000000,1.000000,1.000000,0.549400,0.549400,0.550000,0.548600,0.548500,0.546500,0.546200,0.546200,0.546200,0.546600,0.548700,0.548600,0.548600,0.548400,1.000000,0.548400,0.548500,0.548800,0.546800,0.545600,0.545500,0.545600,0.546100,0.546100,0.546100,0.546100,0.544700,0.544700,0.544700,0.545300,0.546500,0.546400,0.546400,0.546400,0.546400,0.544600,0.543200,0.543100,0.543000,0.543000,0.543000,0.543000,0.543200,0.543200,0.543100,0.541900,0.542000,0.542000,0.542100,0.542100,0.542100,0.542000,0.542600,0.542400,0.542200,0.542200,0.542200,0.542100,0.542000,0.541000,0.540100,0.540100,0.540000,0.539900,0.539800,1.000000,1.000000,0.496100,0.496100,1.000000,0.291200,0.291200,0.291200,0.291200,0.291300,0.291400,0.291400,0.291500,0.291400,0.291400,0.291300,0.291200,0.291100,0.291000,0.291000,0.290900,0.290800,0.290700,0.290400,0.290200,0.290000,0.289900,0.289900,0.289900,0.289900,0.289900,0.289800,0.289800,0.289800,0.289700,0.289600,0.289500,0.289400,0.289300,0.289100,0.289100,0.289100,0.289100,0.289100,0.289000,0.288800,0.288300,0.288200,0.288200,0.288000,0.288000,0.288000,0.287900,0.287900,0.287900,0.287900,0.287900,0.287600,0.287500,0.287400,0.287200,0.287000,0.286800,0.286700,0.286600,0.286500,0.286500,0.286400,0.285500,0.285300,0.285200,0.285200,0.285100,0.285200,0.285200,0.285300,0.285200,0.285200,0.285100,0.285000,0.285000,0.284700,0.284400,0.283800,0.283700,0.283500,0.283500,0.283400,0.283400,0.283400,0.283400,0.283400,0.283500,0.283600,0.282900,0.282900,0.283000,1.000000,1.000000,1.000000,1.000000,1.000000,1.000000,0.483000,0.483000,0.483000,0.483900,0.484600,0.484500,0.483700,0.483600,0.483600,0.483600,0.483500,0.483300,0.483200,0.483100,0.483100,0.483000,0.482200,0.482400,0.482900,0.482800,0.482600,0.482200,0.481700,0.481600,0.481600,0.481600,0.482700,0.482800,1.000000,1.000000,1.000000,1.000000,1.000000,1.000000,1.000000,0.478200,0.478300,0.479200,0.479800,0.479900,0.479900,0.479900,0.479400,0.479200,0.479900,0.479600
1.000000,1.000000,1.000000,1.000000,1.000000,1.000000,1.000000,1.000000,0.757300,1.000000,1.000000,1.000000,1.000000,1.000000,1.000000,1.000000,1.000000,1.000000,1.000000,1.000000,1.000000,1.000000,1.000000,1.000000,1.000000,1.000000,1.000000,1.000000,1.000000,1.000000,1.000000,1.000000,1.000000,1.000000,1.000000,1.000000,0.550800,0.550800,0.550800,1.000000,1.000000,1.000000,1.000000,0.550900,0.550400,0.548500,0.548500,0.548300,0.546300,0.546200,0.546200,0.546500,0.546700,0.548600,0.548500,0.548200,0.548100,0.548200,1.000000,0.550200,0.550100,0.549500,0.545500,0.545600,0.545900,0.546000,0.546000,0.546000,0.544700,0.544700,0.544600,0.544600,0.546200,0.546400,0.546400,0.546400,0.544800,0.544800,0.543200,0.543100,0.543000,0.543000,0.543000,0.543000,0.543000,0.543000,0.543000,0.541900,0.542000,0.542000,0.542100,0.542100,0.542000,0.541900,0.541900,0.542200,0.542200,0.542100,0.542100,0.542000,0.542000,0.540700,0.540100,0.540000,0.538700,0.538600,0.537600,1.000000,0.497100,0.496000,0.496100,1.000000,0.291200,0.291200,0.291100,0.291100,0.291200,0.291300,0.291400,0.291400,0.291400,0.291400,0.291300,0.291200,0.291100,0.291000,0.291000,0.290900,0.290800,0.290700,0.290500,0.290300,0.290000,0.289900,0.289900,0.289900,0.289900,0.289900,0.289900,0.289800,0.289800,0.289700,0.289700,0.289600,0.289400,0.289200,0.289000,0.289000,0.289000,0.289000,0.289000,0.288900,0.288800,0.288300,0.288200,0.288100,0.287900,0.287900,0.287900,0.287900,0.287900,0.287900,0.287900,0.287900,0.287600,0.287400,0.287400,0.287100,0.287000,0.286800,0.286700,0.286600,0.286500,0.286500,0.285600,0.285500,0.285300,0.285200,0.285100,0.285100,0.285200,0.285200,0.285200,0.285200,0.285200,0.285100,0.285100,0.285000,0.284800,0.284500,0.283700,0.283700,0.283500,0.283500,0.283400,0.283400,0.283400,0.283300,0.283300,0.283200,0.283000,0.283000,0.282900,0.283000,1.000000,1.000000,1.000000,1.000000,1.000000,1.000000,0.483000,0.483000,0.483000,0.483000,0.483000,0.483800,0.483700,0.483600,0.483500,0.483400,0.483300,0.483200,0.483100,0.482900,0.482700,0.481500,0.480300,0.480300,0.480300,0.482500,0.482500,0.482200,0.481600,0.481600,0.481500,0.481500,0.482800,0.482900,1.000000,1.000000,1.000000,1.000000,1.000000,1.000000,1.000000,0.478000,0.478000,0.478100,0.479200,0.479100,0.479900,0.479200,0.479100,0.479100,0.479000,0.478800
1.000000,1.000000,1.000000,1.000000,1.000000,1.000000,0.761000,1.000000,0.761000,1.000000,1.000000,1.000000,1.000000,1.000000,1.000000,1.000000,1.000000,1.000000,1.000000,1.000000,1.000000,1.000000,1.000000,1.000000,1.000000,1.000000,1.000000,1.000000,1.000000,1.000000,1.000000,1.000000,1.000000,1.000000,1.000000,1.000000,0.550600,0.550600,0.550600,1.000000,1.000000,1.000000,0.548800,0.548800,0.548700,0.548500,0.548500,0.548300,0.548200,0.546300,0.546300,0.546600,0.546700,0.546800,0.546800,0.546900,0.547900,0.547900,0.548000,0.548800,0.550200,0.550200,0.549100,0.547300,0.545900,0.546000,0.546000,0.546000,0.544700,0.544700,0.544600,0.544700,0.545500,0.545900,0.546500,0.546500,0.544800,0.544800,0.543200,0.543100,0.543000,0.542900,0.542900,0.542900,0.543000,0.543000,0.542900,0.542800,0.542700,0.542400,0.542200,0.542100,0.541900,0.541800,0.541700,0.541700,0.541800,0.541800,0.542000,0.542000,0.542000,0.540100,0.540000,0.538700,0.537600,0.537400,0.537200,1.000000,1.000000,0.495900,0.495900,1.000000,0.291200,0.291100,0.291000,0.290900,0.291000,0.291100,0.291200,0.291300,0.291300,0.291400,0.291300,0.291200,0.291100,0.291000,0.290900,0.290800,0.290700,0.290700,0.290500,0.290500,0.290200,0.290000,0.289900,0.289800,0.289800,0.289800,0.289800,0.289800,0.289800,0.289800,0.289800,0.289600,0.289600,0.289200,0.289000,0.289000,0.289000,0.289000,0.288900,0.288800,0.288700,0.288500,0.288300,0.288000,0.287800,0.287800,0.287800,0.287800,0.287700,0.287700,0.287700,0.287700,0.287500,0.287400,0.287300,0.287100,0.287000,0.286700,0.286600,0.286400,0.286100,0.285900,0.285600,0.285500,0.285300,0.285200,0.285100,0.285100,0.285100,0.285100,0.285100,0.285000,0.285000,0.285000,0.285100,0.285000,0.284800,0.284600,0.283800,0.283700,0.283600,0.283500,0.283500,0.283400,0.283400,0.283300,0.283200,0.283100,0.283000,0.283000,0.283100,0.283300,1.000000,1.000000,1.000000,1.000000,1.000000,1.000000,0.483100,0.483000,0.483000,0.483000,0.483000,0.483200,0.483600,0.482600,0.482700,0.482800,0.483100,0.483100,0.483000,0.482800,0.482600,0.481500,0.480300,0.480300,0.480300,0.482400,0.482300,0.482200,0.481600,0.481500,0.481300,0.481200,0.482800,0.482800,0.482900,0.483000,1.000000,1.000000,1.000000,1.000000,1.000000,0.477900,0.477800,0.477800,0.477900,0.477900,0.478100,0.478900,0.478900,0.479000,0.478900,0.477600
1.000000,1.000000,1.000000,1.000000,1.000000,1.000000,1.000000,0.761100,1.000000,1.000000,1.000000,1.000000,1.000000,1.000000,1.000000,1.000000,1.000000,1.000000,1.000000,1.000000,1.000000,1.000000,1.000000,1.000000,1.000000,1.000000,1.000000,1.000000,1.000000,1.000000,1.000000,1.000000,1.000000,1.000000,1.000000,0.550600,0.550600,0.550500,0.550500,1.000000,1.000000,1.000000,0.548800,0.548800,0.548700,0.548600,0.548500,0.548400,0.548200,0.548100,0.546700,0.546700,0.546800,0.546800,0.546900,0.547000,0.547800,0.547900,0.547900,0.548000,0.548700,0.549300,0.548500,0.547400,0.546000,0.546000,0.546000,0.544800,0.544700,0.544700,0.544700,0.544700,0.544800,0.545100,0.545100,0.545000,0.544800,0.544700,0.543200,0.543000,0.543000,0.542900,0.542900,0.542800,0.542800,0.542800,0.542700,0.541700,0.541800,0.541800,0.541900,0.541900,0.541800,0.541800,0.541700,0.541700,0.541700,0.541700,0.541900,0.541900,0.540400,0.540100,0.540100,0.540100,0.537600,0.537500,0.537300,1.000000,1.000000,0.495900,0.495900,1.000000,0.291200,0.291000,0.290800,0.290800,0.290900,0.291000,0.291100,0.291300,0.291300,0.291400,0.291400,0.291300,0.291200,0.290900,0.290800,0.290700,0.290600,0.290600,0.290600,0.290500,0.290300,0.290200,0.290000,0.289800,0.289700,0.289700,0.289800,0.289800,0.289800,0.289800,0.289800,0.289700,0.289500,0.289200,0.289100,0.289000,0.289000,0.289000,0.288900,0.288800,0.288700,0.288500,0.288300,0.287700,0.287600,0.287600,0.287600,0.287600,0.287600,0.287600,0.287600,0.287600,0.287400,0.287400,0.287300,0.287200,0.287000,0.286600,0.286500,0.286300,0.286000,0.285900,0.285800,0.285700,0.285400,0.285300,0.285200,0.285200,0.285200,0.285100,0.285000,0.285000,0.284900,0.285000,0.285000,0.285100,0.285000,0.284900,0.284500,0.284400,0.283600,0.283600,0.283500,0.283400,0.283300,0.283200,0.283100,0.283100,0.283000,0.283100,0.283200,0.283300,1.000000,1.000000,1.000000,1.000000,1.000000,1.000000,0.483100,0.483000,0.482400,0.482000,0.481900,0.481900,0.481800,0.482500,0.482600,0.482700,0.483000,0.483100,0.484600,0.482700,0.482600,0.481500,0.480300,0.480300,0.480900,0.482200,0.482200,0.482200,0.482200,0.481500,0.481100,0.481000,0.480900,1.000000,0.483000,1.000000,1.000000,1.000000,1.000000,1.000000,0.477800,1.000000,0.477800,0.477800,0.477900,0.478000,0.478100,0.478600,0.478900,0.478900,0.478900,0.478800
1.000000,1.000000,1.000000,1.000000,1.000000,1.000000,1.000000,1.000000,0.761200,1.000000,1.000000,1.000000,1.000000,1.000000,1.000000,1.000000,1.000000,1.000000,1.000000,1.000000,1.000000,1.000000,1.000000,1.000000,1.000000,1.000000,1.000000,1.000000,1.000000,1.000000,1.000000,1.000000,1.000000,1.000000,1.000000,0.550500,0.550400,0.550200,0.550100,0.550000,1.000000,0.548900,0.548800,0.548800,0.548800,0.548600,0.548600,0.548500,0.548900,0.548900,0.547800,0.546800,0.546800,0.546800,0.546900,0.547000,0.547600,0.547200,0.547800,0.548000,0.548500,0.548500,0.548500,0.547500,0.547500,0.546000,0.545200,0.544900,0.544800,0.544800,0.544800,0.544800,0.545000,0.545100,0.545100,0.544900,0.544700,0.544600,0.544500,0.543900,0.543000,0.542900,0.542900,0.542800,0.542800,0.542600,0.541700,0.541700,0.541700,0.541800,0.541900,0.541900,0.541800,0.541700,0.541600,0.541600,0.541600,0.541600,0.540700,0.540500,0.540400,0.540200,0.540100,0.540100,0.540100,0.540100,0.537200,0.537200,1.000000,0.496000,0.495900,1.000000,0.291300,0.290700,0.290700,0.290700,0.290900,0.291000,0.291000,0.291200,0.291200,0.291300,0.291300,0.291200,0.291000,0.290800,0.290700,0.290600,0.290600,0.290600,0.290600,0.290500,0.290400,0.290200,0.289800,0.289700,0.289700,0.289600,0.289700,0.289700,0.289800,0.289800,0.289800,0.289700,0.289500,0.289300,0.289200,0.289100,0.289000,0.289000,0.288900,0.288800,0.288700,0.288500,0.288000,0.287700,0.287600,0.287500,0.287400,0.287400,0.287400,0.287400,0.287400,0.287400,0.287400,0.287300,0.287300,0.287200,0.287100,0.286300,0.286200,0.286100,0.286000,0.286000,0.285900,0.285900,0.285900,0.285300,0.285300,0.285300,0.285200,0.285000,0.284900,0.284800,0.284800,0.284800,0.284900,0.285000,0.285000,0.284900,0.284600,0.284400,0.283900,0.283800,0.283600,0.283400,0.283300,0.283200,0.283100,0.283100,0.283000,0.283100,0.283200,0.283300,1.000000,1.000000,1.000000,1.000000,1.000000,1.000000,1.000000,0.482300,0.482200,0.482000,0.482000,0.481900,0.481900,0.482400,0.482600,0.482700,0.483800,0.484500,0.484600,0.483400,0.482400,0.481600,0.480300,0.480300,0.480300,0.481400,0.481900,0.482100,0.482100,0.481100,0.480700,0.480600,0.480600,1.000000,1.000000,1.000000,1.000000,1.000000,1.000000,1.000000,0.477800,0.477800,0.477800,0.477800,0.477900,0.478000,0.478300,0.478700,0.478800,0.478900,0.478900,0.478800
1.000000,1.000000,1.000000,1.000000,1.000000,1.000000,1.000000,1.000000,1.000000,1.000000,1.000000,1.000000,1.000000,1.000000,1.000000,1.000000,1.000000,1.000000,1.000000,1.000000,1.000000,1.000000,1.000000,1.000000,1.000000,1.000000,1.000000,1.000000,1.000000,1.000000,1.000000,1.000000,1.000000,1.000000,1.000000,0.553000,0.550400,0.550000,0.549900,0.549900,0.548900,0.548900,0.548800,0.548800,0.548800,0.548700,0.548700,0.549200,0.549000,0.548900,0.546900,0.546800,0.546800,0.546800,0.546900,0.546900,0.547000,0.547100,0.547200,0.547600,0.548300,0.548500,0.548500,0.548400,0.548300,0.547600,0.545900,0.545000,0.544900,0.544900,0.544900,0.545000,0.545100,0.545000,0.545000,0.544900,0.544700,0.544600,0.544400,0.544100,0.543200,0.542900,0.542800,0.542800,0.542700,0.541700,0.541700,0.541700,0.541700,0.541800,0.541900,0.541900,0.541800,0.541700,0.541600,0.541600,0.541600,0.540600,0.540600,0.540500,0.540400,0.540200,0.540100,0.540100,0.540100,0.540100,0.540100,0.540100,1.000000,0.496000,0.496000,1.000000,0.291300,0.290900,0.290700,0.290700,0.290900,0.291000,0.291000,0.291100,0.291200,0.291200,0.291200,0.291100,0.290900,0.290700,0.290600,0.290600,0.290600,0.290600,0.290600,0.290500,0.290400,0.290000,0.289800,0.289600,0.289600,0.289600,0.289600,0.289700,0.289800,0.289800,0.289800,0.289700,0.289500,0.289400,0.289200,0.289100,0.289000,0.289000,0.288900,0.288800,0.288700,0.288400,0.288100,0.287700,0.287600,0.287500,0.287400,0.287300,0.287300,0.287300,0.287300,0.287300,0.287300,0.287300,0.287300,0.287200,0.286900,0.286200,0.286200,0.286100,0.286000,0.286000,0.286000,0.286000,0.286100,0.286000,0.285600,0.285400,0.285300,0.284900,0.284800,0.284700,0.284700,0.284700,0.284800,0.284900,0.285000,0.284900,0.284500,0.284200,0.283900,0.283800,0.283700,0.283400,0.283300,0.283200,0.283100,0.283100,0.283000,0.283100,0.283200,0.283200,1.000000,1.000000,1.000000,0.362900,1.000000,1.000000,1.000000,1.000000,1.000000,0.482100,1.000000,1.000000,0.484100,0.484100,0.484000,0.483900,0.483800,0.483800,0.484600,0.482300,0.481800,0.480700,0.480300,0.480300,0.480300,0.481400,0.481500,0.482000,0.482100,0.480900,0.480700,0.480600,0.480600,1.000000,1.000000,1.000000,1.000000,1.000000,1.000000,1.000000,0.478700,0.477900,0.477800,0.477900,0.478000,0.478000,0.478600,0.478800,0.478800,0.478900,0.478900,0.478800
1.000000,1.000000,1.000000,1.000000,1.000000,1.000000,1.000000,1.000000,1.000000,1.000000,1.000000,1.000000,1.000000,1.000000,1.000000,1.000000,1.000000,1.000000,1.000000,1.000000,1.000000,1.000000,1.000000,1.000000,1.000000,1.000000,1.000000,1.000000,1.000000,1.000000,1.000000,1.000000,1.000000,1.000000,1.000000,0.553100,0.552200,0.549900,0.549800,1.000000,1.000000,1.000000,0.549000,0.549000,1.000000,0.549000,0.549200,0.552400,0.552400,0.550800,0.548800,1.000000,0.543400,0.543400,1.000000,0.546900,0.547000,0.547100,0.547100,0.547100,0.548100,0.548400,0.548400,0.548400,0.548400,0.547600,0.546100,0.545500,0.545200,0.545200,0.545100,0.545100,0.545100,0.544900,0.544800,0.544700,0.544600,0.544500,0.544000,0.543600,0.543600,0.543300,0.542700,0.541900,0.541800,0.541700,0.541700,0.541700,0.541700,0.542800,1.000000,0.542500,0.541800,0.541800,0.541600,0.541600,0.540600,0.540600,0.540600,0.540500,0.540400,0.540200,0.540200,0.540100,0.540100,0.540100,0.540100,1.000000,1.000000,0.496100,0.496000,1.000000,0.291700,0.291600,0.290900,0.290900,0.291100,0.291000,0.291000,0.291000,0.291100,0.291100,0.290900,0.290800,0.290700,0.290600,0.290600,0.290600,0.290600,0.290600,0.290500,0.290500,0.290200,0.290000,0.289800,0.289600,0.289600,0.289600,0.289600,0.289600,0.289700,0.289800,0.289800,0.289600,0.289500,0.289300,0.289200,0.289100,0.289000,0.289000,0.288900,0.288700,0.288600,0.288400,0.288200,0.288100,0.287600,0.287500,0.287300,0.287300,0.287200,0.287200,0.287200,0.287200,0.287200,0.287200,0.287200,0.287100,0.286300,0.286200,0.286100,0.286000,0.286000,0.286000,0.286000,0.286200,0.286200,0.286100,0.286000,0.285800,0.285700,0.284800,0.284700,0.284700,0.284700,0.284700,0.284700,0.284800,0.285000,0.284400,0.283900,0.283900,0.283900,0.283800,0.283700,0.283500,0.283400,0.283200,0.283100,0.283100,0.283100,0.283100,0.283100,0.283100,1.000000,1.000000,1.000000,1.000000,1.000000,0.362800,0.359600,1.000000,1.000000,0.482100,1.000000,1.000000,0.484100,0.484100,0.484000,0.483900,0.483800,0.483700,0.482200,0.481400,0.481000,0.480600,0.480400,0.480400,0.480400,0.480400,0.481400,0.481700,0.482100,0.480900,0.480700,0.480600,0.480600,1.000000,1.000000,1.000000,1.000000,1.000000,1.000000,1.000000,1.000000,1.000000,0.478500,0.478200,0.478300,0.478400,0.478700,0.478800,0.478900,0.478900,0.477100,0.477100
1.000000,1.000000,1.000000,1.000000,1.000000,1.000000,1.000000,1.000000,1.000000,1.000000,1.000000,1.000000,1.000000,1.000000,1.000000,1.000000,1.000000,1.000000,1.000000,1.000000,1.000000,1.000000,1.000000,1.000000,1.000000,1.000000,1.000000,1.000000,0.752000,0.750200,1.000000,1.000000,1.000000,1.000000,1.000000,0.553100,0.552800,0.551600,0.549800,1.000000,1.000000,1.000000,0.549000,0.549000,1.000000,0.549100,0.549000,0.549100,0.552400,0.548600,1.000000,0.543400,0.543400,0.543400,0.545600,0.546800,0.547200,0.547100,0.547100,0.547100,0.547100,0.548400,0.548400,0.548400,0.548400,0.547600,0.547500,0.547400,0.545400,0.545300,0.545300,0.545100,0.545000,0.544800,0.544700,0.544600,0.544500,0.544300,0.543400,0.543500,0.543500,0.543500,0.542200,0.541900,0.541800,0.541800,0.541700,0.541800,0.543000,0.542800,0.542600,0.542500,0.541800,0.541700,0.540700,0.540600,0.540600,0.540500,0.540500,0.540500,0.540400,0.540200,0.540200,0.540100,0.539000,0.538900,0.538800,0.538800,1.000000,0.496000,0.496000,1.000000,0.291800,0.291800,0.291500,0.291300,0.291200,0.291100,0.291000,0.291000,0.290900,0.290900,0.290800,0.290700,0.290700,0.290600,0.290600,0.290600,0.290600,0.290600,0.290500,0.290500,0.290200,0.290100,0.289900,0.289700,0.289600,0.289600,0.289600,0.289600,0.289700,0.289800,0.289700,0.289500,0.289400,0.289300,0.289100,0.289100,0.289000,0.288900,0.288800,0.288600,0.288600,0.288300,0.288200,0.288200,0.287900,0.287500,0.287300,0.287300,0.287200,0.287200,0.287100,0.287000,0.287000,0.287000,0.287000,0.286500,0.286300,0.286100,0.286000,0.286000,0.286000,0.286000,0.286000,0.286100,0.286100,0.286100,0.286000,0.285900,0.284800,0.284600,0.284600,0.284600,0.284600,0.284600,0.284600,0.284600,0.284600,0.283900,0.283800,0.283800,0.283800,0.283800,0.283800,0.283700,0.283700,0.283400,0.283300,0.283200,0.283200,0.283100,0.283100,0.283100,0.283100,1.000000,1.000000,0.362400,1.000000,0.362300,0.358700,1.000000,1.000000,1.000000,1.000000,1.000000,0.484100,0.484100,0.484000,0.483900,0.483800,0.482400,0.481600,0.480900,0.480800,0.480600,0.480400,0.480400,0.480400,0.480400,0.481300,0.481700,0.482100,0.482200,0.480800,0.480700,0.480700,1.000000,1.000000,1.000000,1.000000,1.000000,1.000000,1.000000,0.478900,0.478800,0.478700,0.478200,0.478300,0.478400,0.478700,0.478800,0.478800,0.477100,0.476100,0.476100
1.000000,1.000000,1.000000,1.000000,1.000000,1.000000,1.000000,1.000000,1.000000,1.000000,1.000000,1.000000,1.000000,1.000000,1.000000,1.000000,1.000000,1.000000,1.000000,1.000000,1.000000,1.000000,1.000000,1.000000,1.000000,0.761300,0.759400,0.756900,0.753600,0.752000,1.000000,1.000000,1.000000,1.000000,1.000000,1.000000,1.000000,1.000000,1.000000,1.000000,1.000000,1.000000,1.000000,0.549100,1.000000,1.000000,1.000000,0.548600,0.548600,0.545900,0.545300,1.000000,0.545200,0.545300,0.546700,0.547400,0.547300,0.546900,0.546900,0.547000,0.547100,0.547200,0.548300,0.548400,0.547500,0.545600,0.545500,0.545500,0.545400,0.544000,0.542600,0.542700,0.542800,0.544600,0.544500,0.544500,0.543000,0.543100,0.543200,0.543300,0.543300,0.542400,0.542000,0.541900,0.541900,0.543200,0.543200,0.543100,0.543000,0.542900,0.541600,0.541600,0.541600,0.541600,0.540700,0.540600,0.540600,0.540500,0.540500,0.538800,0.540200,0.540200,0.540100,0.539700,0.539000,0.539000,0.538800,0.538800,1.000000,0.496000,0.496000,1.000000,0.292000,0.291900,0.291700,0.291600,0.291400,0.291100,0.291000,0.290900,0.290800,0.290800,0.290700,0.290700,0.290600,0.290600,0.290600,0.290600,0.290600,0.290600,0.290500,0.290400,0.290200,0.290100,0.290000,0.289800,0.289600,0.289600,0.289600,0.289600,0.289600,0.289700,0.289600,0.289200,0.289100,0.289100,0.289000,0.289000,0.288800,0.288800,0.288700,0.288500,0.288400,0.288300,0.288200,0.288200,0.288200,0.288100,0.287400,0.287300,0.287200,0.287200,0.287100,0.287000,0.287000,0.286900,0.286800,0.286600,0.286400,0.286100,0.286000,0.286000,0.286000,0.286000,0.286000,0.286000,0.286100,0.286000,0.286000,0.284900,0.284700,0.284600,0.284600,0.284600,0.284600,0.284700,0.284600,0.284500,0.284100,0.283800,0.283800,0.283700,0.283700,0.283700,0.283800,0.283800,0.283800,0.283600,0.283400,0.283400,0.283200,0.283200,0.283000,0.283000,0.283000,1.000000,1.000000,0.362500,1.000000,1.000000,1.000000,1.000000,1.000000,1.000000,1.000000,1.000000,0.484000,0.483800,0.483800,0.483800,0.483600,0.481300,0.481100,0.480800,0.480700,0.480700,0.480600,0.481100,0.481300,0.481400,0.481900,0.482100,0.482300,0.482300,0.482400,0.482400,0.482400,0.482400,1.000000,1.000000,1.000000,1.000000,1.000000,1.000000,0.478900,0.478900,0.478900,0.478200,0.478200,0.478400,0.478700,0.478800,0.478800,0.477000,0.476100,0.476100
1.000000,1.000000,1.000000,1.000000,1.000000,1.000000,1.000000,0.761100,0.761100,1.000000,1.000000,1.000000,1.000000,1.000000,1.000000,1.000000,1.000000,1.000000,1.000000,1.000000,1.000000,1.000000,1.000000,1.000000,0.761900,0.761900,0.761200,0.759300,0.756900,0.755500,1.000000,1.000000,1.000000,1.000000,1.000000,1.000000,0.551800,0.551100,0.549700,1.000000,1.000000,1.000000,1.000000,1.000000,1.000000,0.546000,0.546000,0.545900,0.545800,0.545400,0.545300,0.545200,0.546700,0.546700,0.546700,0.546700,0.547400,0.546700,0.546800,0.546800,0.547000,0.547100,0.547200,0.547400,0.545600,0.544100,0.541900,0.541800,0.541700,0.541600,0.541700,0.541700,0.542800,0.542800,0.544500,0.544000,0.542800,0.543000,0.543100,0.543200,0.543100,0.542900,0.542100,0.542000,0.543200,0.543200,0.543200,0.543100,0.542400,0.541700,0.541500,0.541500,0.541600,0.541600,0.540700,0.540600,0.540600,0.540500,0.538700,0.538700,0.538700,0.538800,0.539000,0.539100,0.539000,0.539000,0.538900,0.538900,1.000000,0.496000,0.496000,1.000000,0.292000,0.292000,0.291800,0.291700,0.291300,0.291000,0.291000,0.290900,0.290900,0.290800,0.290800,0.290700,0.290700,0.290600,0.290600,0.290600,0.290600,0.290600,0.290400,0.290300,0.290200,0.290100,0.290000,0.289800,0.289700,0.289600,0.289600,0.289600,0.289600,0.289600,0.289500,0.289100,0.289000,0.289000,0.289000,0.288900,0.288800,0.288700,0.288600,0.288400,0.288300,0.288200,0.288200,0.288200,0.288200,0.288200,0.287400,0.287400,0.287300,0.287200,0.287100,0.286900,0.286800,0.286800,0.286800,0.286600,0.286500,0.286200,0.286100,0.286000,0.286000,0.285900,0.286000,0.286000,0.286000,0.286000,0.286000,0.284700,0.284600,0.284600,0.284600,0.284600,0.284700,0.284700,0.284700,0.284500,0.284000,0.283900,0.283800,0.283700,0.283700,0.283700,0.283800,0.283800,0.283800,0.283700,0.283600,0.283600,0.283400,0.283400,0.283100,0.283000,0.283000,1.000000,0.361400,0.362500,0.362600,0.362600,0.360600,0.360500,1.000000,0.360500,1.000000,1.000000,1.000000,0.483600,0.483600,0.483600,0.483300,0.481200,0.481000,0.480400,0.480200,0.480100,0.480300,0.481400,0.481500,0.481800,0.482000,0.482100,0.482300,0.482400,0.482400,0.482400,0.480900,0.480800,0.480700,1.000000,1.000000,1.000000,1.000000,1.000000,0.478900,0.478900,0.478500,0.477300,0.477300,0.477300,0.478600,0.478600,0.478500,0.477000,0.476000,0.476000
1.000000,1.000000,1.000000,1.000000,1.000000,1.000000,0.761000,0.761100,0.761100,1.000000,1.000000,1.000000,1.000000,1.000000,0.756000,1.000000,1.000000,1.000000,1.000000,1.000000,1.000000,1.000000,1.000000,1.000000,1.000000,0.761900,0.759200,0.759200,0.756900,0.756900,1.000000,1.000000,1.000000,1.000000,1.000000,1.000000,0.550000,0.551100,0.549600,0.548900,1.000000,1.000000,1.000000,1.000000,1.000000,0.546000,0.546000,0.545900,0.545800,0.545400,0.545300,1.000000,0.546700,0.546700,0.546700,0.546700,0.546700,0.545900,0.546500,0.546700,0.546800,0.547100,0.546800,0.546500,0.544000,0.542000,0.541600,0.541600,0.541500,0.541600,0.541600,0.541600,0.541700,0.542800,0.542800,0.542800,0.542600,0.542500,0.543000,0.543100,0.543000,0.543000,0.542900,0.542100,0.543100,0.543200,0.543200,0.543100,0.542000,0.541600,0.541400,0.541400,0.541500,0.541600,0.541400,0.540700,0.540600,0.540600,0.538600,0.538600,0.538600,0.538800,0.538900,0.539000,0.539000,0.539000,0.538900,0.538900,0.497200,0.496000,0.496000,1.000000,0.292000,0.292000,0.291800,0.291700,0.291000,0.291000,0.291000,0.291000,0.290900,0.290900,0.290800,0.290800,0.290800,0.290700,0.290600,0.290600,0.290600,0.290500,0.290300,0.290300,0.290100,0.290100,0.290000,0.289800,0.289700,0.289600,0.289600,0.289600,0.289600,0.289500,0.289300,0.289000,0.289000,0.289000,0.288900,0.288900,0.288800,0.288700,0.288600,0.288400,0.288300,0.288200,0.288100,0.288200,0.288200,0.288200,0.287400,0.287400,0.287300,0.287200,0.287100,0.286800,0.286800,0.286700,0.286800,0.286800,0.286600,0.286300,0.286100,0.286000,0.286000,0.285900,0.285900,0.285900,0.285900,0.285900,0.285900,0.284700,0.284600,0.284600,0.284600,0.284700,0.284800,0.284800,0.284700,0.284300,0.284100,0.283900,0.283800,0.283800,0.283700,0.283700,0.283700,0.283700,0.283700,0.283700,0.283600,0.283600,0.283500,0.283400,0.283300,0.283100,0.283000,0.283200,0.361400,1.000000,0.362600,0.362600,0.360500,0.360500,0.360500,0.360500,1.000000,0.360500,1.000000,0.483600,0.483500,0.483500,0.483300,0.482000,0.481000,0.480200,0.480100,0.480100,0.480100,0.481500,0.481600,0.481800,0.482000,0.482100,0.482300,0.482400,0.482400,0.481200,0.480700,0.480600,0.480600,1.000000,1.000000,1.000000,1.000000,1.000000,1.000000,0.478700,0.478200,0.477300,0.477300,0.477300,0.477500,0.478300,0.478300,0.477000,0.476000,0.476000
1.000000,1.000000,1.000000,1.000000,0.757800,0.759400,0.761000,0.761100,0.761100,1.000000,1.000000,1.000000,1.000000,0.758300,0.759200,1.000000,1.000000,1.000000,1.000000,1.000000,1.000000,1.000000,1.000000,1.000000,1.000000,1.000000,1.000000,1.000000,0.756900,1.000000,1.000000,1.000000,1.000000,1.000000,1.000000,1.000000,0.549100,0.549500,0.549000,1.000000,1.000000,1.000000,1.000000,1.000000,0.548300,0.546200,0.546400,0.546300,0.546000,0.545800,0.545400,0.546800,0.546800,0.546700,0.546700,0.545200,0.545400,0.545500,0.546200,0.546400,0.546500,0.546500,0.546400,0.546400,0.543500,0.541900,0.541600,0.541500,0.541500,0.541400,0.541400,0.541500,0.541500,0.541400,0.541300,0.541200,0.541100,0.541300,0.542200,0.543000,0.542900,0.542900,0.542900,0.543000,0.543000,0.543100,0.543000,0.542700,0.541800,0.541600,0.541400,0.541400,0.541400,0.541600,0.541600,0.541600,0.541400,0.541100,0.539000,0.538500,0.538500,0.538600,0.538800,0.539000,0.539000,0.539000,0.538800,0.538800,1.000000,0.497200,0.497200,0.496100,0.291000,0.291000,0.291000,0.291000,0.290900,0.290900,0.291000,0.291000,0.290900,0.290900,0.290900,0.290900,0.290800,0.290800,0.290700,0.290600,0.290500,0.290400,0.290300,0.290200,0.290100,0.290100,0.290000,0.289900,0.289800,0.289600,0.289600,0.289500,0.289400,0.289300,0.289100,0.289000,0.288900,0.288900,0.288800,0.288800,0.288600,0.288600,0.288500,0.288400,0.288300,0.288100,0.288100,0.288100,0.288200,0.288200,0.287800,0.287400,0.287300,0.287300,0.287200,0.286700,0.286700,0.286700,0.286700,0.286800,0.286700,0.286400,0.286300,0.286200,0.286000,0.285900,0.285900,0.285900,0.285900,0.285900,0.285800,0.284700,0.284700,0.284700,0.284700,0.284800,0.284800,0.284800,0.284500,0.284300,0.284200,0.284000,0.283900,0.283800,0.283800,0.283800,0.283700,0.283600,0.283600,0.283600,0.283600,0.283600,0.283500,0.283500,0.283400,0.283400,0.283300,1.000000,1.000000,0.361300,1.000000,1.000000,0.360500,0.360500,0.360600,0.360700,0.360700,1.000000,1.000000,0.483600,0.483600,0.483500,0.483400,0.483000,0.482000,0.480100,0.480100,0.480100,0.480100,0.480300,0.481700,0.481800,0.481900,0.481600,0.481300,0.481200,0.481200,0.481100,0.480400,0.480400,0.480500,1.000000,1.000000,1.000000,1.000000,1.000000,1.000000,0.478000,0.478000,0.477400,0.477400,0.477300,0.477600,0.478200,0.478100,0.476800,0.475900,0.476000
1.000000,0.758000,0.757900,0.757900,0.758200,0.759300,0.759400,0.759600,0.758700,1.000000,1.000000,1.000000,1.000000,0.755700,0.755900,1.000000,1.000000,1.000000,1.000000,1.000000,1.000000,1.000000,1.000000,1.000000,1.000000,1.000000,1.000000,1.000000,0.754800,1.000000,1.000000,1.000000,1.000000,1.000000,1.000000,1.000000,0.549000,0.549000,0.549000,0.547000,1.000000,1.000000,1.000000,1.000000,0.550400,0.548300,0.548400,0.548200,0.547900,0.547100,0.547000,0.546900,0.546800,0.545000,0.545100,0.545200,0.545400,0.545400,0.546400,0.546400,0.546400,0.546500,0.546400,0.546400,1.000000,1.000000,0.543500,0.541600,0.541400,1.000000,0.541400,0.541400,0.541400,0.541300,0.541200,0.541100,0.540800,0.540800,0.541400,0.542900,0.542800,0.542800,0.542800,0.542800,0.542800,0.542700,0.542300,0.541900,0.541600,0.541400,0.541000,0.541100,0.541400,0.541500,0.541600,0.541600,0.541200,0.541200,0.541100,0.538400,0.538500,0.538500,0.538600,0.539000,0.539000,0.539000,0.538800,0.538800,1.000000,0.497200,0.497200,0.496300,0.291000,0.291000,0.290900,0.290900,0.290900,0.290900,0.291000,0.291000,0.291000,0.291000,0.291000,0.291000,0.291000,0.291000,0.290900,0.290600,0.290500,0.290400,0.290300,0.290300,0.290200,0.290200,0.290100,0.289900,0.289800,0.289600,0.289500,0.289400,0.289300,0.289200,0.289100,0.289000,0.288900,0.288900,0.288800,0.288700,0.288400,0.288400,0.288300,0.288200,0.288100,0.288000,0.288000,0.288000,0.288000,0.288000,0.287800,0.287500,0.287300,0.287200,0.286800,0.286500,0.286500,0.286600,0.286600,0.286700,0.286700,0.286400,0.286200,0.286100,0.285900,0.285800,0.285600,0.285700,0.285800,0.285700,0.285700,0.284800,0.284700,0.284700,0.284700,0.284800,0.284900,0.284900,0.284600,0.284300,0.284200,0.284100,0.284100,0.284000,0.284000,0.284000,0.283800,0.283600,0.283500,0.283500,0.283500,0.283500,0.283500,0.283400,0.283400,0.283400,1.000000,1.000000,1.000000,1.000000,1.000000,1.000000,0.360400,0.360500,0.359200,1.000000,1.000000,1.000000,1.000000,0.483700,0.483600,0.483500,0.483400,0.483100,0.482800,0.481100,0.480100,0.480100,0.480200,0.480400,0.481500,0.481600,0.481600,0.481200,0.481200,0.481100,0.481100,0.481000,0.479300,0.479000,0.479000,1.000000,1.000000,1.000000,1.000000,1.000000,1.000000,0.478000,0.478000,0.477700,0.477400,0.478300,0.478300,0.478300,0.478100,0.476800,0.476000,0.476000
1.000000,0.759800,1.000000,0.758300,1.000000,1.000000,1.000000,1.000000,1.000000,1.000000,1.000000,1.000000,1.000000,0.755500,0.755000,1.000000,1.000000,1.000000,1.000000,1.000000,1.000000,1.000000,1.000000,1.000000,1.000000,1.000000,1.000000,1.000000,1.000000,1.000000,1.000000,1.000000,1.000000,1.000000,1.000000,1.000000,0.549000,0.549000,0.549000,0.549000,0.547000,1.000000,1.000000,1.000000,0.550400,0.550300,0.550200,0.550200,0.548300,0.548000,0.547000,0.546400,0.544700,0.544800,0.545000,0.545200,1.000000,0.546600,0.546400,0.546400,0.546400,0.546400,0.545200,0.543800,0.543500,0.543500,0.543500,0.543400,0.543300,0.541400,0.541400,0.541400,0.541400,0.541400,0.541200,0.540900,0.540800,0.540800,0.540800,0.542700,0.542700,0.542700,0.542800,0.542700,0.542700,0.542600,0.541800,0.541700,0.540900,0.540800,0.540700,0.540700,0.541100,0.541400,0.540800,0.540900,0.541000,0.541100,0.541100,0.538500,0.538500,0.538600,0.538600,0.539100,0.539100,0.539100,0.538700,0.538700,1.000000,0.497200,0.496300,1.000000,0.291000,0.291000,0.291000,0.290900,0.290900,0.291000,0.291000,0.291000,0.291000,0.291000,0.291000,0.291000,0.291000,0.291000,0.291000,0.290700,0.290600,0.290500,0.290400,0.290300,0.290300,0.290200,0.290100,0.289800,0.289700,0.289400,0.289200,0.289100,0.289000,0.289000,0.289000,0.288900,0.288900,0.288800,0.288700,0.288600,0.288200,0.288100,0.288100,0.288100,0.288000,0.287900,0.287900,0.287900,0.287900,0.287900,0.287600,0.287400,0.287200,0.287000,0.286600,0.286500,0.286400,0.286500,0.286500,0.286700,0.286400,0.286200,0.286100,0.286000,0.285700,0.285500,0.285100,0.285000,0.285500,0.285700,0.285600,0.284700,0.284600,0.284700,0.284700,0.284800,0.284800,0.284800,0.284500,0.284400,0.284200,0.284100,0.284100,0.284100,0.284100,0.284000,0.283700,0.283600,0.283400,0.283400,0.283400,0.283400,0.283400,0.283300,0.283300,0.283300,0.283400,0.283500,1.000000,1.000000,1.000000,1.000000,1.000000,1.000000,0.357200,1.000000,1.000000,1.000000,1.000000,0.483800,0.483700,0.483700,0.483500,0.482800,0.481300,0.481000,0.480800,0.480700,0.480600,0.480600,0.480900,0.481500,0.481400,0.481200,0.481100,0.481000,0.481000,0.481000,0.478900,0.478900,0.478800,0.479300,1.000000,1.000000,1.000000,1.000000,1.000000,0.478100,0.478100,0.478200,0.478300,0.478400,0.478400,0.478300,0.477000,0.476900,0.476000,0.476000
1.000000,0.759800,1.000000,1.000000,1.000000,1.000000,1.000000,1.000000,1.000000,1.000000,1.000000,1.000000,1.000000,1.000000,1.000000,1.000000,1.000000,1.000000,1.000000,1.000000,1.000000,1.000000,1.000000,1.000000,0.759000,1.000000,1.000000,1.000000,1.000000,1.000000,1.000000,1.000000,1.000000,1.000000,1.000000,1.000000,0.549000,0.549400,0.549000,0.549100,0.549200,1.000000,1.000000,0.550400,0.550400,0.550300,0.550200,0.548400,0.548300,0.547100,0.544900,0.544600,0.544600,0.544800,0.544800,0.545200,0.547200,0.546900,0.546700,0.546500,0.546400,0.545300,0.544200,0.543400,0.543400,0.543400,0.543500,0.543400,0.543300,0.543200,0.543200,0.543200,0.543200,0.543100,0.542300,0.542300,0.540800,0.540800,0.541400,0.541400,0.542500,0.542600,0.542600,0.542600,0.542600,0.541900,0.541600,0.541600,0.540800,0.540700,0.540700,0.540700,0.540700,0.540800,0.540800,0.540800,0.540800,0.540800,0.540200,0.538600,0.538600,0.538600,0.538700,0.539000,0.539100,0.539000,0.538600,0.538600,1.000000,0.496300,0.496300,1.000000,0.291100,0.291100,0.291100,0.291100,0.291000,0.291000,0.291000,0.291000,0.291000,0.291000,0.291000,0.291000,0.291000,0.291000,0.291000,0.290800,0.290600,0.290600,0.290600,0.290600,0.290600,0.290900,0.290700,0.289700,0.289600,0.289200,0.289000,0.289000,0.289000,0.289000,0.288900,0.288900,0.288800,0.288800,0.288800,0.288600,0.288000,0.287900,0.287900,0.287800,0.287800,0.287700,0.287700,0.287600,0.287500,0.287400,0.287300,0.287200,0.287000,0.286800,0.286600,0.286400,0.286300,0.286200,0.286100,0.285900,0.285900,0.285900,0.285800,0.285600,0.285400,0.285100,0.284900,0.284800,0.284600,0.284600,0.284600,0.284600,0.284600,0.284600,0.284700,0.284700,0.284700,0.284700,0.284400,0.284400,0.284300,0.284100,0.284000,0.283300,0.283400,0.283700,0.283600,0.283500,0.283400,0.283400,0.283400,0.283400,0.283300,0.283300,0.283200,0.283200,0.283200,1.000000,1.000000,1.000000,1.000000,1.000000,1.000000,1.000000,1.000000,1.000000,1.000000,1.000000,0.482400,0.483800,0.483700,0.483600,0.481800,0.481400,0.481300,0.480900,0.480800,0.480700,0.480600,0.480600,0.480700,0.481200,0.481200,0.481000,0.481000,0.480900,0.480900,0.479500,0.478700,0.478700,0.478700,0.478700,0.478700,1.000000,1.000000,1.000000,1.000000,0.478200,0.478300,0.478300,0.478400,0.478400,0.478400,0.478400,0.477000,0.476900,0.476800,0.476800
1.000000,1.000000,1.000000,1.000000,1.000000,1.000000,1.000000,1.000000,1.000000,1.000000,1.000000,1.000000,1.000000,1.000000,1.000000,1.000000,1.000000,1.000000,1.000000,1.000000,1.000000,1.000000,1.000000,1.000000,0.759000,0.759000,1.000000,1.000000,1.000000,1.000000,1.000000,1.000000,1.000000,1.000000,1.000000,1.000000,0.550100,0.550000,0.550000,0.549800,1.000000,1.000000,1.000000,0.550300,0.550200,0.548700,0.548500,0.548400,0.546400,1.000000,0.543400,0.544600,0.544600,0.544700,0.546200,0.547200,0.547200,0.547000,0.546800,0.546600,0.546400,0.545100,0.544300,0.543300,0.543400,0.543400,0.543400,0.543400,0.543200,0.543200,0.543200,0.543200,0.543200,0.543000,0.543000,0.542700,0.542300,0.541500,0.541400,0.541400,0.541400,0.541800,0.542500,0.542600,0.542500,0.541600,0.541600,0.541600,0.540800,0.540700,0.540700,0.540700,0.540700,0.540700,0.540800,0.540800,0.540700,0.540700,0.540200,0.538700,0.538700,0.538700,0.538800,0.538900,0.539000,0.538500,0.538400,0.538400,1.000000,0.496300,0.496300,1.000000,0.291200,0.291200,0.291200,0.291200,0.291100,0.291100,0.291100,0.291100,0.291000,0.291000,0.290900,0.290900,0.290900,0.290900,0.290900,0.290700,0.290600,0.290600,0.290600,0.290600,0.290800,0.290900,0.290900,0.289500,0.289300,0.289000,0.289000,0.288900,0.288900,0.288900,0.288900,0.288800,0.288800,0.288800,0.288800,0.288600,0.287900,0.287900,0.287800,0.287700,0.287700,0.287600,0.287500,0.287400,0.287300,0.287200,0.287100,0.287000,0.286800,0.286700,0.286600,0.286300,0.286200,0.286000,0.285900,0.285800,0.285700,0.285700,0.285600,0.285400,0.285300,0.285100,0.284900,0.284800,0.284600,0.284600,0.284600,0.284500,0.284600,0.284600,0.284600,0.284600,0.284600,0.284500,0.284400,0.284300,0.284200,0.284100,0.283200,0.283300,0.283400,0.283400,0.283500,0.283500,0.283400,0.283400,0.283400,0.283300,0.283200,0.283000,0.282800,0.283000,0.283000,1.000000,1.000000,0.480700,1.000000,1.000000,1.000000,1.000000,1.000000,1.000000,0.355000,1.000000,0.482300,0.482300,0.483000,0.483300,0.481800,0.481700,0.481300,0.480900,0.480800,0.480700,0.480600,0.480600,0.480600,0.481000,0.481000,0.481000,0.480900,0.480900,0.480900,0.478600,0.478700,0.478700,0.478700,0.478700,0.478700,1.000000,1.000000,1.000000,1.000000,0.478300,0.478400,0.478400,0.478400,0.477000,0.477000,0.477000,0.476900,0.476900,0.476800,0.476800
1.000000,1.000000,1.000000,1.000000,1.000000,1.000000,1.000000,1.000000,1.000000,1.000000,1.000000,1.000000,1.000000,1.000000,1.000000,1.000000,1.000000,1.000000,1.000000,1.000000,1.000000,1.000000,1.000000,1.000000,0.759000,1.000000,1.000000,1.000000,1.000000,1.000000,1.000000,1.000000,1.000000,1.000000,1.000000,1.000000,0.550100,0.550000,0.550000,0.549800,1.000000,1.000000,0.547300,0.547300,0.547400,0.546300,0.546200,0.546200,0.543400,0.543400,0.543400,0.544500,0.544600,0.546200,0.546200,0.546100,0.547200,0.547000,0.546800,0.546700,0.546300,0.544900,0.544500,0.543300,0.543300,0.543400,0.543400,0.543200,0.543100,0.543100,0.543200,0.543200,0.542600,0.542400,0.542800,0.542800,0.542700,0.542600,0.541400,0.541400,0.541400,0.541400,0.542500,0.542500,0.542500,0.541600,0.541600,0.541600,0.541600,0.541100,0.540700,0.540700,0.540700,0.540700,0.540700,0.540700,0.540700,0.540600,0.540600,0.538800,0.538800,0.538800,0.538800,0.538800,0.538400,0.538400,0.538400,0.538400,1.000000,0.497500,0.496300,1.000000,1.000000,0.291400,0.291400,0.291400,0.291500,0.291200,0.291200,0.291100,0.291000,0.290900,0.290800,0.290700,0.290700,0.290700,0.290700,0.290600,0.290600,0.290500,0.290400,0.290600,0.290800,0.290900,0.290800,0.289100,0.289000,0.288900,0.288800,0.288800,0.288700,0.288700,0.288700,0.288700,0.288700,0.288700,0.288800,0.288700,0.288600,0.287800,0.287800,0.287700,0.287600,0.287500,0.287400,0.287300,0.287200,0.287000,0.286900,0.286900,0.286800,0.286700,0.286600,0.286300,0.286200,0.285900,0.285800,0.285800,0.285700,0.285600,0.285500,0.285400,0.285300,0.285100,0.284900,0.284800,0.284600,0.284600,0.284500,0.284500,0.284500,0.284500,0.284400,0.284400,0.284300,0.284300,0.284200,0.284200,0.284200,0.283200,0.283200,0.283200,0.283300,0.283400,0.283400,0.283400,0.283400,0.283300,0.283300,0.282500,0.282400,0.282400,0.282500,0.282600,0.282800,1.000000,0.481900,0.481200,0.481200,0.481300,0.481900,0.483400,1.000000,1.000000,0.355000,1.000000,0.482200,0.482200,0.482200,0.482100,0.482000,0.481900,0.481800,0.482200,0.480700,0.480700,0.480600,0.480600,0.480600,0.480800,0.480900,0.480900,0.480900,0.480800,0.479500,0.478600,0.478600,0.478700,0.478800,0.478700,1.000000,1.000000,1.000000,1.000000,1.000000,0.478500,0.478500,0.478500,0.477000,0.476900,0.476800,0.476800,0.476800,0.476800,0.476600,0.476600
1.000000,1.000000,1.000000,1.000000,1.000000,1.000000,1.000000,1.000000,1.000000,1.000000,1.000000,1.000000,1.000000,1.000000,1.000000,1.000000,1.000000,1.000000,1.000000,1.000000,1.000000,1.000000,1.000000,1.000000,1.000000,1.000000,1.000000,1.000000,1.000000,1.000000,1.000000,1.000000,1.000000,1.000000,1.000000,1.000000,0.548500,0.548600,0.549900,0.549800,0.548600,0.546400,0.546400,0.546400,0.546400,0.546300,0.546200,0.546200,0.544300,0.544300,0.544400,0.544700,0.545000,0.546200,0.546200,0.546000,0.545900,0.546900,0.546800,0.546800,0.546500,0.546300,0.544800,0.544800,0.545500,0.545500,0.545400,0.543200,0.543000,0.543000,0.543200,0.542500,0.542400,0.542500,0.542800,0.542800,0.542800,0.542500,0.541300,0.541300,0.541400,0.541400,0.541600,0.541600,0.541500,0.541400,0.541500,0.541600,0.541600,0.540600,0.540600,0.540700,0.540700,0.540700,0.540700,0.540600,0.540600,0.540500,0.540500,0.538900,0.538800,0.538700,0.538700,0.537800,0.537100,0.537100,0.537100,0.538400,1.000000,0.497100,0.496200,1.000000,0.291500,0.291500,0.291600,0.291700,0.291800,0.291800,0.291700,0.291000,0.291000,0.290900,0.290800,0.290600,0.290600,0.290600,0.290600,0.290500,0.290500,0.290400,0.290200,0.290200,0.290400,0.290600,0.290600,0.289000,0.288900,0.288800,0.288800,0.288700,0.288600,0.288600,0.288600,0.288400,0.288400,0.288600,0.288700,0.288600,0.288600,0.288000,0.287700,0.287600,0.287500,0.287400,0.287300,0.287200,0.287000,0.286900,0.286800,0.286800,0.286700,0.286700,0.286500,0.286200,0.286000,0.285900,0.285800,0.285700,0.285600,0.285500,0.285400,0.285300,0.285300,0.285100,0.285000,0.284800,0.284700,0.284600,0.284600,0.284500,0.284500,0.284400,0.284400,0.284300,0.284300,0.284200,0.284200,0.284200,0.284100,0.283200,0.283300,0.283300,0.283300,0.283400,0.283400,0.283400,0.283300,0.283300,0.283100,0.282400,0.282400,0.282400,0.282400,0.282500,0.282700,1.000000,0.481900,0.481700,0.481200,1.000000,0.481300,0.481600,0.481600,1.000000,0.355000,1.000000,0.482100,0.482100,0.482100,0.482100,0.482100,0.482200,0.482700,0.482500,0.482400,0.480700,0.480600,0.480600,0.480600,0.480700,0.480700,0.480700,0.480500,0.479200,0.478400,0.478500,0.478600,0.478900,0.479000,0.480400,1.000000,1.000000,1.000000,1.000000,1.000000,1.000000,0.478700,0.478700,0.477000,0.476800,0.476600,0.476600,0.476600,0.476600,0.476500,0.476400
1.000000,1.000000,1.000000,0.762900,1.000000,1.000000,1.000000,1.000000,0.760300,0.760300,0.754700,0.754700,1.000000,1.000000,1.000000,1.000000,1.000000,1.000000,1.000000,1.000000,1.000000,1.000000,1.000000,1.000000,1.000000,1.000000,1.000000,1.000000,1.000000,1.000000,1.000000,1.000000,1.000000,1.000000,1.000000,1.000000,0.546500,0.548500,0.548500,0.548600,1.000000,1.000000,0.546400,0.546400,0.546400,0.546300,0.548100,0.548200,0.548200,0.546600,0.546300,0.546300,0.546200,0.546200,0.546100,0.545900,0.545800,0.545800,0.546800,0.546800,0.546800,0.546400,0.544800,0.544800,0.545400,0.545400,0.545000,0.543200,0.542600,0.542500,0.543200,0.543200,0.542500,0.542500,0.542800,0.542800,0.542800,0.541400,0.541200,0.541300,0.541400,0.541500,0.541600,0.541500,0.541400,0.541400,0.541400,0.541600,0.540600,0.539400,0.539400,0.539400,0.540600,0.540600,0.540600,0.540600,0.540600,0.540500,0.540100,0.539000,0.538900,0.538800,0.537700,0.537100,0.537000,0.537000,0.537000,0.537000,1.000000,0.496100,0.494500,1.000000,0.291600,0.291600,0.291600,0.291800,0.291800,0.291900,0.291700,0.291000,0.290900,0.290700,0.290600,0.290500,0.290400,0.290400,0.290300,0.290300,0.290200,0.290100,0.290000,0.290000,0.290200,0.290300,0.290400,0.289000,0.288900,0.288800,0.288700,0.288600,0.288500,0.288400,0.288300,0.288300,0.288200,0.288200,0.288600,0.288600,0.288500,0.288400,0.287800,0.287600,0.287500,0.287300,0.287200,0.287100,0.287000,0.286900,0.286800,0.286800,0.286800,0.286700,0.286500,0.286100,0.286000,0.285900,0.285800,0.285700,0.285600,0.285500,0.285400,0.285300,0.285300,0.285100,0.285000,0.284800,0.284700,0.284700,0.284600,0.284500,0.284500,0.284400,0.284300,0.284200,0.284100,0.284100,0.284100,0.284000,0.284000,0.283400,0.283300,0.283300,0.283400,0.283400,0.283400,0.282900,0.282600,0.282500,0.282500,0.282400,0.282400,0.282400,0.282400,0.282400,0.283000,1.000000,0.481800,0.481600,0.481300,0.481300,0.481300,1.000000,1.000000,1.000000,1.000000,1.000000,0.481200,0.482100,0.482100,0.482200,0.482200,0.482800,0.482800,0.482700,0.482500,0.480700,0.480700,0.480700,0.480700,0.480700,0.480700,0.480200,0.479600,0.478400,0.478400,0.478400,0.478500,0.479300,0.480000,0.480400,0.480400,1.000000,1.000000,1.000000,1.000000,1.000000,0.478800,0.478800,0.477700,0.476600,0.476400,0.476300,0.476300,0.476300,0.476300,0.476300
1.000000,1.000000,0.762900,0.761800,0.759700,1.000000,1.000000,1.000000,1.000000,0.758900,0.754700,0.754700,1.000000,1.000000,1.000000,1.000000,1.000000,1.000000,1.000000,1.000000,1.000000,1.000000,1.000000,1.000000,1.000000,1.000000,1.000000,1.000000,1.000000,1.000000,1.000000,1.000000,1.000000,1.000000,1.000000,1.000000,0.546500,0.547700,0.548500,0.548600,0.548600,0.548500,0.548100,0.548100,0.548100,0.548100,0.548100,0.549300,0.549200,1.000000,0.547600,0.547100,0.546200,0.546100,0.546000,0.545800,0.545800,0.545700,0.546700,0.546800,0.546700,0.546500,0.544800,0.544900,0.544900,0.545000,0.544800,0.544400,0.543200,0.542400,0.542300,0.543000,0.542600,0.542700,0.542800,0.542800,0.540800,0.539900,0.539900,0.539900,0.541400,0.541500,0.541600,0.541400,0.540900,0.540400,0.540400,0.540500,0.539400,0.539400,0.539400,0.539400,0.539400,0.540500,0.539500,0.539300,0.539300,0.539300,0.539200,0.539000,0.538900,0.537000,0.537000,0.537000,0.537000,0.537000,0.537000,0.537000,1.000000,0.494500,0.494500,1.000000,0.291700,1.000000,0.291800,0.291800,0.291900,0.291900,0.291000,0.290900,0.290900,0.290600,0.290500,0.290400,0.290300,0.290300,0.290200,0.290200,0.290100,0.290000,0.290000,0.290000,0.290100,0.290300,0.290300,0.289000,0.289000,0.288800,0.288800,0.288600,0.288500,0.288400,0.288200,0.288200,0.288000,0.288000,0.288000,0.288000,0.288200,0.288100,0.287900,0.287600,0.287500,0.287300,0.287200,0.287100,0.287000,0.286900,0.286900,0.286900,0.286800,0.286700,0.286600,0.286100,0.286000,0.285900,0.285800,0.285800,0.285600,0.285500,0.285400,0.285300,0.285300,0.285100,0.285000,0.284700,0.284700,0.284600,0.284600,0.284500,0.284500,0.284300,0.284200,0.284200,0.284100,0.284000,0.284000,0.284000,0.283900,0.283700,0.283600,0.283500,0.283500,0.283400,0.282900,0.282700,0.282600,0.282500,0.282500,0.282400,0.282400,0.282400,0.282400,0.282400,0.282800,1.000000,1.000000,1.000000,0.481200,1.000000,0.481200,1.000000,1.000000,0.356000,1.000000,1.000000,1.000000,0.481200,0.482100,1.000000,0.482200,0.482800,0.482800,0.482700,0.482700,0.480700,0.480700,0.480700,0.480700,0.480700,0.480600,0.479600,0.479600,0.478400,0.478400,0.478400,0.479200,0.479200,0.479200,0.480400,1.000000,1.000000,1.000000,1.000000,1.000000,1.000000,0.478700,0.478700,0.477600,0.477100,0.476300,0.476200,0.476200,0.476200,0.476200,0.476200
1.000000,1.000000,1.000000,0.759700,1.000000,1.000000,1.000000,1.000000,1.000000,1.000000,1.000000,1.000000,1.000000,1.000000,1.000000,1.000000,1.000000,1.000000,1.000000,1.000000,1.000000,0.760200,0.760200,1.000000,1.000000,1.000000,1.000000,1.000000,1.000000,1.000000,1.000000,1.000000,1.000000,1.000000,1.000000,1.000000,0.547600,0.547700,0.548700,0.549400,0.549500,0.549600,0.548600,0.548100,0.548100,0.548100,0.548100,0.548200,0.548200,0.548000,0.547600,0.547100,0.545900,0.545800,0.545800,0.545700,0.545800,0.546700,0.546700,0.546700,0.544600,0.544600,0.544600,0.544800,0.544800,0.544800,0.544700,0.544500,0.544400,0.542300,0.542300,0.542300,0.542500,0.542700,0.542800,0.542800,0.540700,0.540000,0.540000,0.540000,0.541400,0.541400,0.541500,0.540800,0.540400,0.539900,0.539500,0.539500,0.539400,0.539400,0.539400,0.539400,0.539400,0.539300,0.539300,0.539300,0.539300,0.539300,0.539200,0.539000,0.539000,0.536900,0.536900,0.536900,0.536900,0.536900,0.536800,0.536800,1.000000,0.494600,0.494600,1.000000,0.291600,0.291700,0.291700,0.291800,0.291200,0.291100,0.291000,0.290900,0.290800,0.290600,0.290400,0.290200,0.290100,0.290100,0.290100,0.290000,0.289900,0.289800,0.289800,0.290000,0.290100,0.290300,0.290300,0.289100,0.289000,0.288900,0.288800,0.288700,0.288500,0.288400,0.288300,0.288200,0.288000,0.288000,0.288000,0.288000,0.288000,0.288000,0.287900,0.287800,0.287500,0.287300,0.287200,0.287100,0.287000,0.287000,0.286900,0.286900,0.286900,0.286800,0.286800,0.286100,0.286000,0.285900,0.285900,0.285800,0.285600,0.285600,0.285400,0.285400,0.285300,0.284500,0.284400,0.284400,0.284500,0.284600,0.284600,0.284500,0.284400,0.284200,0.284100,0.284000,0.283900,0.283900,0.283900,0.283800,0.283800,0.283700,0.283700,0.283600,0.283500,0.283400,0.282800,0.282700,0.282600,0.282600,0.282500,0.282400,0.282400,0.282400,0.282400,0.282400,0.282500,1.000000,1.000000,1.000000,1.000000,1.000000,1.000000,1.000000,0.356100,0.356000,0.356000,1.000000,1.000000,1.000000,1.000000,1.000000,1.000000,1.000000,1.000000,1.000000,1.000000,1.000000,1.000000,1.000000,1.000000,0.480700,0.480700,0.479600,0.479600,0.478400,0.479100,0.479400,0.479200,0.479200,0.478100,0.478100,0.478200,1.000000,1.000000,1.000000,1.000000,1.000000,0.475800,0.477100,0.477200,0.477200,0.476200,0.476200,0.476100,0.476000,0.476000,0.474400
1.000000,1.000000,1.000000,1.000000,1.000000,1.000000,1.000000,1.000000,1.000000,1.000000,1.000000,1.000000,1.000000,1.000000,1.000000,1.000000,1.000000,1.000000,1.000000,1.000000,1.000000,1.000000,0.760300,1.000000,1.000000,1.000000,1.000000,1.000000,1.000000,1.000000,1.000000,1.000000,1.000000,1.000000,1.000000,1.000000,0.547600,0.549400,0.549500,0.549500,0.549600,0.549600,0.549600,0.548600,0.548100,0.546500,0.546500,0.546400,0.548200,0.548000,0.546200,0.547100,0.545600,0.545400,0.545400,0.545600,0.546600,0.546700,0.546700,0.546500,0.544500,0.544500,0.544400,0.544100,0.544100,0.544800,0.544700,0.544600,0.544400,0.543600,0.542300,0.542300,1.000000,0.542600,0.542800,0.544000,0.540500,0.540100,0.540000,0.540100,0.541400,0.541400,0.541400,0.540700,0.540300,0.539700,0.539600,0.539500,0.539400,0.539400,0.539400,0.539400,0.539400,0.539300,0.539300,0.539300,0.539300,0.539300,0.539200,0.539000,0.539000,0.537000,0.537000,0.537000,0.536900,0.536900,0.536800,0.536800,1.000000,0.494700,0.494700,1.000000,0.291600,0.291600,0.291600,0.291700,0.291200,0.291100,0.291000,0.290900,0.290800,0.290600,0.290000,0.290000,0.290000,0.290000,0.290000,0.289900,0.289800,0.289700,0.289600,0.289700,0.290200,0.290200,0.290300,0.289100,0.289000,0.288900,0.288800,0.288700,0.288600,0.288400,0.288300,0.288300,0.288100,0.288000,0.288000,0.288000,0.288000,0.288000,0.287900,0.287700,0.287400,0.287300,0.287200,0.287100,0.287000,0.287000,0.286900,0.286900,0.286900,0.286900,0.286800,0.286400,0.286000,0.285900,0.285900,0.285800,0.285600,0.285600,0.285400,0.285400,0.285300,0.284400,0.284400,0.284400,0.284500,0.284600,0.284600,0.284500,0.284400,0.284200,0.284100,0.284000,0.283900,0.283800,0.283800,0.283800,0.283800,0.283700,0.283700,0.283600,0.283500,0.283400,0.282900,0.282800,0.282600,0.282600,0.282500,0.282400,0.282400,0.282400,0.282400,0.282400,0.282400,1.000000,1.000000,0.359600,1.000000,0.360000,0.360000,0.358500,0.356000,0.356100,0.356100,0.356100,1.000000,1.000000,1.000000,1.000000,1.000000,1.000000,1.000000,1.000000,1.000000,1.000000,1.000000,1.000000,1.000000,1.000000,0.480600,0.479600,0.479600,0.479500,0.480100,0.480200,0.479200,0.479100,0.478100,0.478100,0.478200,1.000000,1.000000,1.000000,1.000000,0.475800,0.475800,0.475900,0.477200,0.477200,0.476200,0.476200,0.476100,0.476000,0.476000,0.474400
1.000000,1.000000,1.000000,1.000000,1.000000,1.000000,1.000000,1.000000,1.000000,1.000000,1.000000,1.000000,1.000000,1.000000,1.000000,1.000000,1.000000,1.000000,1.000000,1.000000,1.000000,1.000000,1.000000,1.000000,1.000000,1.000000,1.000000,1.000000,1.000000,1.000000,1.000000,1.000000,1.000000,1.000000,1.000000,1.000000,0.549400,0.549400,1.000000,0.549500,0.549600,0.549600,0.549400,0.548400,0.548000,0.546500,0.546400,0.546300,0.546200,0.546200,0.546100,0.545900,1.000000,0.545000,0.545100,0.545200,0.546500,0.546700,0.546800,0.546800,0.544500,0.544400,0.544200,0.543600,0.543500,0.543500,0.544700,0.544500,0.544400,0.544100,0.543900,0.543800,0.542400,0.542500,0.543900,0.543900,0.543900,0.540400,0.540100,0.540200,0.540200,0.540400,0.541400,0.541300,0.540200,0.539700,0.539600,0.539600,0.539500,0.539500,0.539500,0.539400,0.539400,0.539300,0.539300,0.539300,0.539400,0.539400,0.539200,0.539000,0.538900,0.537900,0.537000,0.537000,0.537000,0.536900,0.536700,0.536700,1.000000,0.494700,0.494700,1.000000,0.291400,0.291400,0.291300,0.291300,0.291200,0.291100,0.291100,0.290900,0.290900,0.289900,0.289900,0.289900,0.290000,0.290000,0.289900,0.289800,0.289700,0.289600,0.289500,0.289500,0.290100,0.290200,0.290200,0.289000,0.289000,0.288800,0.288700,0.288600,0.288500,0.288500,0.288400,0.288400,0.288300,0.288100,0.288000,0.288000,0.287900,0.287800,0.287600,0.287500,0.287300,0.287200,0.287100,0.287000,0.286900,0.286800,0.286700,0.286500,0.286300,0.286300,0.286800,0.286800,0.286400,0.285900,0.285800,0.285800,0.285700,0.285600,0.285500,0.285500,0.285400,0.284500,0.284500,0.284400,0.284600,0.284600,0.284600,0.284600,0.284400,0.284200,0.284100,0.284000,0.283800,0.283800,0.283800,0.283800,0.283800,0.283700,0.283700,0.283600,0.283500,0.283400,0.283100,0.282900,0.282700,0.282700,0.282600,0.282400,0.282400,0.282400,0.282400,0.282400,0.282400,1.000000,1.000000,0.360000,0.360000,0.360000,0.360000,0.358400,0.356000,0.356000,0.356100,0.356200,1.000000,1.000000,1.000000,1.000000,0.366900,0.366900,0.367000,0.370000,0.370300,0.370400,0.377100,0.381100,1.000000,1.000000,1.000000,0.479700,0.479600,0.479600,0.480200,0.480200,0.478500,0.478200,0.478200,1.000000,1.000000,1.000000,1.000000,1.000000,1.000000,0.475900,0.475900,0.476000,0.476100,0.477200,0.477200,0.477200,0.477200,0.477100,0.475900,0.474500
0.755500,1.000000,0.755700,1.000000,1.000000,1.000000,1.000000,1.000000,1.000000,1.000000,1.000000,1.000000,1.000000,1.000000,1.000000,1.000000,1.000000,1.000000,1.000000,1.000000,1.000000,1.000000,1.000000,1.000000,0.752300,1.000000,1.000000,1.000000,1.000000,1.000000,1.000000,1.000000,1.000000,1.000000,1.000000,1.000000,1.000000,0.548100,0.548000,0.547400,0.547400,0.547300,0.547300,0.546400,0.546400,0.546400,0.546300,0.546200,0.546100,0.546100,0.545200,0.544900,0.544800,0.545000,0.545000,0.545100,0.546200,0.546200,0.546500,0.546000,0.545600,0.544300,0.543900,0.543600,0.543500,0.543400,0.544500,0.544400,0.544100,0.543900,0.543900,0.543700,0.542500,0.542400,0.542600,0.543900,0.543900,0.543000,0.540400,0.540400,0.540400,0.540400,0.541300,0.541300,0.541300,0.539800,0.539800,0.539700,0.539700,0.539700,0.539600,0.539600,0.539500,0.539500,0.539400,0.539500,0.539500,0.539400,0.539300,0.538900,0.538800,0.538500,0.537800,0.537100,0.537000,0.536800,0.536700,0.536700,1.000000,0.494500,0.494500,1.000000,0.291200,0.291200,0.291200,0.291100,0.291100,0.291100,0.291100,0.291000,0.290900,0.289900,0.289900,0.289900,0.289900,0.289900,0.289900,0.289800,0.289600,0.289500,0.289400,0.289400,0.289300,0.289300,0.289100,0.289000,0.288900,0.288600,0.288600,0.288500,0.288500,0.288600,0.288600,0.288600,0.288500,0.288400,0.288200,0.288000,0.287900,0.287700,0.287600,0.287400,0.287200,0.287200,0.287000,0.286900,0.286800,0.286700,0.286500,0.286400,0.286300,0.286300,0.286200,0.286800,0.286700,0.286400,0.285800,0.285800,0.285700,0.285700,0.285600,0.285600,0.285600,0.284600,0.284600,0.284600,0.284700,0.284700,0.284600,0.284600,0.284400,0.284300,0.284000,0.284000,0.283800,0.283800,0.283800,0.283800,0.283800,0.283700,0.283700,0.283500,0.283400,0.283300,0.283100,0.283000,0.282800,0.282700,0.282600,0.282400,0.282400,0.282300,0.282300,0.282400,0.282400,1.000000,0.359800,0.360000,0.360000,0.360000,0.360000,0.358300,0.355800,0.355800,0.356100,0.357600,0.361500,0.361500,0.363700,0.365000,0.366800,0.366900,0.367000,0.370200,0.370300,0.370400,0.373800,0.377100,0.381100,0.382000,1.000000,1.000000,0.479900,0.480200,0.480200,0.480200,0.478400,0.478400,0.478300,1.000000,0.478300,1.000000,1.000000,1.000000,1.000000,1.000000,0.476200,0.476100,0.476200,0.477200,0.477200,0.477200,0.477200,0.477100,0.475500,0.474600
0.756000,0.756000,1.000000,0.756600,0.760800,1.000000,1.000000,1.000000,1.000000,1.000000,1.000000,1.000000,1.000000,1.000000,1.000000,1.000000,1.000000,1.000000,1.000000,1.000000,1.000000,1.000000,1.000000,1.000000,0.753400,1.000000,1.000000,1.000000,1.000000,1.000000,1.000000,1.000000,1.000000,1.000000,1.000000,1.000000,1.000000,0.548100,0.548100,0.547400,0.547300,0.547300,0.546700,0.546300,0.546300,0.546300,0.546200,0.546100,0.546000,0.546000,0.545000,0.544800,0.544800,0.544800,0.544900,0.545300,0.546200,0.546200,0.546200,0.546000,0.545600,0.545600,0.544100,0.543900,0.543500,0.543500,0.544400,0.544200,0.544000,0.543800,0.543600,0.542500,0.542500,0.542200,0.542100,0.541900,0.543000,0.541200,0.540500,0.540500,0.540500,0.540500,0.541200,0.541200,0.540100,0.539900,0.539900,0.539800,0.539800,0.539800,0.539700,0.539600,0.539600,0.539500,0.539500,0.539500,0.539500,0.539500,0.538500,0.538500,0.538600,0.538400,0.538400,0.538300,0.537100,0.536900,0.536700,0.536700,1.000000,0.494400,0.494400,1.000000,0.291200,0.291100,0.291100,0.291000,0.291000,0.291100,0.291100,0.291100,0.290900,0.290000,0.290000,0.290000,0.289900,0.289900,0.289900,0.289800,0.289600,0.289500,0.289400,0.289400,0.289300,0.289200,0.289100,0.288800,0.288600,0.288400,0.288300,0.288400,0.288400,0.288600,0.288600,0.288600,0.288600,0.288400,0.288200,0.287900,0.287800,0.287600,0.287400,0.287300,0.287100,0.287000,0.286900,0.286800,0.286700,0.286600,0.286500,0.286400,0.286300,0.286200,0.286200,0.286000,0.286400,0.285700,0.285700,0.285700,0.285700,0.285800,0.285800,0.285800,0.285700,0.285500,0.285200,0.285000,0.284900,0.284900,0.284700,0.284700,0.284400,0.284300,0.284200,0.284000,0.283900,0.283800,0.283800,0.283800,0.283800,0.283700,0.283700,0.283500,0.283400,0.283300,0.283100,0.283000,0.282800,0.282700,0.282600,0.282400,0.282400,0.282400,0.282400,0.282400,0.282400,1.000000,1.000000,1.000000,0.363800,0.360100,0.359500,0.357300,0.355700,0.355700,0.356700,0.359600,0.361500,0.363000,0.363700,0.365000,0.365000,0.366800,0.369900,0.370500,0.370600,0.372000,1.000000,1.000000,1.000000,1.000000,1.000000,0.480300,0.480400,0.480400,0.480200,0.480100,0.479800,0.478400,0.478400,0.478400,0.478400,1.000000,1.000000,1.000000,1.000000,1.000000,1.000000,0.476300,0.476600,0.477000,0.477200,0.477200,0.477200,0.475500,0.475400,0.475000
0.758400,0.759200,1.000000,1.000000,1.000000,1.000000,1.000000,1.000000,1.000000,1.000000,1.000000,1.000000,1.000000,1.000000,1.000000,1.000000,1.000000,1.000000,1.000000,1.000000,1.000000,1.000000,0.756500,0.756300,0.753300,0.752400,0.752500,0.752500,0.752400,1.000000,1.000000,1.000000,1.000000,1.000000,1.000000,1.000000,0.549300,0.548100,0.548100,0.547200,0.547200,0.544800,0.544700,0.544700,0.546100,0.546100,0.546000,0.545800,0.545700,0.545100,0.544800,0.544800,0.544600,0.544500,0.544500,0.545000,0.545300,0.543000,0.543000,0.543000,0.543000,0.544200,0.544200,0.544200,0.544200,0.544200,0.544200,0.541900,0.541800,0.541900,0.542200,0.542500,0.542400,0.542100,0.541800,0.541800,0.541300,0.541000,0.540800,0.540800,0.540800,0.541000,0.541200,0.541200,0.540100,0.540100,0.540100,0.540100,0.540000,0.540000,0.539900,0.539800,0.539700,0.539500,0.539500,0.539500,0.539500,0.539500,0.538300,0.538100,0.537900,0.538400,0.538300,0.538300,0.537400,0.537300,0.537300,0.537300,1.000000,0.494400,0.494400,1.000000,1.000000,0.291000,0.291000,0.290900,0.290900,0.291000,0.291100,0.291100,0.291000,0.290300,0.290100,0.290000,0.290000,0.289900,0.289900,0.289800,0.289600,0.289600,0.289400,0.289300,0.289200,0.289100,0.289000,0.288800,0.288600,0.288300,0.288300,0.288400,0.288400,0.288600,0.288700,0.288700,0.288600,0.288400,0.288100,0.287800,0.287700,0.287500,0.287400,0.287300,0.287000,0.286900,0.286800,0.286800,0.286700,0.286700,0.286600,0.286500,0.286300,0.286200,0.286100,0.285900,0.285800,0.285700,0.285600,0.285700,0.285700,0.285800,0.285800,0.285800,0.285800,0.285600,0.285400,0.285100,0.285000,0.284900,0.284800,0.284700,0.284500,0.284400,0.284200,0.284000,0.283900,0.283900,0.283800,0.283800,0.283800,0.283700,0.283700,0.283400,0.283300,0.283200,0.283000,0.283000,0.282800,0.282800,0.282600,0.282400,0.282400,0.282400,0.282400,0.282400,0.282400,1.000000,0.365200,0.368300,0.365300,0.365300,0.360100,0.355600,0.354400,0.355500,0.357000,0.359700,1.000000,0.362900,1.000000,1.000000,1.000000,1.000000,1.000000,1.000000,1.000000,1.000000,1.000000,1.000000,1.000000,1.000000,0.480200,1.000000,0.480400,0.480400,0.480200,0.479600,0.479600,0.478400,0.478400,0.477300,0.477300,0.477300,1.000000,1.000000,1.000000,0.476200,0.476300,0.476600,0.476700,0.476300,0.476000,0.475900,0.475800,0.475500,0.475400,0.475200
1.000000,1.000000,1.000000,1.000000,1.000000,1.000000,1.000000,1.000000,1.000000,1.000000,1.000000,1.000000,1.000000,1.000000,1.000000,1.000000,1.000000,1.000000,1.000000,1.000000,1.000000,1.000000,1.000000,0.756300,0.753200,1.000000,0.752500,0.752500,1.000000,1.000000,1.000000,1.000000,1.000000,1.000000,1.000000,1.000000,0.548200,0.548100,0.548100,0.547100,0.547100,0.544800,0.544700,0.544500,0.546100,0.546000,0.545600,0.544500,0.544800,0.544900,0.544800,0.544700,0.544500,0.544400,0.544400,0.544400,0.544400,0.543000,0.543000,0.543000,0.542900,0.542900,0.542900,0.544200,0.544200,0.544200,0.544200,0.541600,0.541700,0.541800,0.542100,0.542400,0.542400,0.541800,0.541400,0.541300,0.541000,0.541000,0.540800,0.540800,0.540900,0.541000,0.541100,0.541200,0.540200,0.540200,0.540200,0.540100,0.540100,0.540100,0.539900,0.539900,0.539800,0.539200,0.539400,0.539400,0.539500,0.539500,0.537800,0.537800,0.537900,0.538300,0.538300,0.538200,0.538000,0.537500,0.537400,0.537400,1.000000,0.494400,0.493700,1.000000,1.000000,0.291000,0.290900,0.290900,0.290800,0.290900,0.291000,0.291100,0.291100,0.290500,0.290200,0.290100,0.290000,0.290000,0.289900,0.289800,0.289600,0.289600,0.289400,0.289300,0.289200,0.289100,0.289000,0.288900,0.288800,0.288300,0.288300,0.288400,0.288600,0.288700,0.288700,0.288600,0.288500,0.288400,0.288000,0.287700,0.287600,0.287400,0.287300,0.287200,0.286900,0.286800,0.286800,0.286700,0.286700,0.286700,0.286600,0.286500,0.286400,0.286300,0.286100,0.285900,0.285700,0.285600,0.285600,0.285600,0.285600,0.285700,0.285800,0.285800,0.285800,0.285600,0.285500,0.285200,0.285000,0.285000,0.284800,0.284700,0.284500,0.284400,0.284200,0.284000,0.284000,0.283900,0.283800,0.283800,0.283800,0.283700,0.283700,0.283400,0.283200,0.283100,0.282900,0.282900,0.282800,0.282800,0.282700,0.282500,0.282400,0.282400,0.282400,0.282400,0.282500,1.000000,0.370000,1.000000,1.000000,1.000000,1.000000,0.354400,0.354400,0.355500,1.000000,0.361500,1.000000,1.000000,1.000000,1.000000,1.000000,1.000000,1.000000,1.000000,1.000000,1.000000,1.000000,1.000000,1.000000,0.479900,0.479900,0.480300,0.480400,0.480400,0.479600,0.479600,0.479600,0.478400,0.478400,0.477300,0.477300,0.477300,1.000000,1.000000,1.000000,0.476200,0.476400,0.476700,0.476800,0.476200,0.476000,0.475900,0.475800,0.475600,0.475500,0.475200
1.000000,1.000000,1.000000,1.000000,1.000000,1.000000,1.000000,1.000000,1.000000,1.000000,1.000000,1.000000,1.000000,1.000000,1.000000,1.000000,1.000000,1.000000,1.000000,1.000000,1.000000,1.000000,1.000000,1.000000,1.000000,1.000000,1.000000,1.000000,1.000000,1.000000,1.000000,1.000000,1.000000,1.000000,1.000000,1.000000,0.547100,0.547100,0.547100,0.547100,0.544800,0.544800,0.544700,0.544600,1.000000,0.544300,0.544400,0.544500,0.544700,0.544800,0.544800,0.544700,0.544400,0.544300,0.544300,0.544300,0.543100,0.543000,0.543000,0.543000,0.542900,0.542900,0.542800,0.544200,0.544200,0.544200,0.541400,0.541500,0.541600,0.541700,0.541900,0.542400,0.542400,0.542300,0.541300,0.541300,0.541100,0.541000,0.540900,0.540900,0.541000,0.541000,0.541000,0.540500,0.540300,0.540200,0.540200,0.540200,0.540100,0.540100,0.540000,0.539900,0.538600,0.538600,0.538800,0.539200,0.539400,0.539400,0.537800,0.537900,0.537900,0.538200,0.538300,0.538200,0.538000,0.537800,0.537600,0.537500,1.000000,0.493900,0.493300,1.000000,1.000000,1.000000,0.290800,0.290800,0.290800,0.290800,0.290800,0.290900,0.291000,0.291000,0.290300,0.290000,0.289900,0.289900,0.289900,0.289800,0.289700,0.289600,0.289500,0.289300,0.289200,0.289100,0.289000,0.288900,0.288900,0.288900,0.288900,0.288800,0.288700,0.288700,0.288600,0.288500,0.288400,0.288100,0.287700,0.287500,0.287400,0.287300,0.287200,0.287000,0.286700,0.286700,0.286700,0.286700,0.286700,0.286700,0.286700,0.286500,0.286400,0.286200,0.286000,0.285700,0.285600,0.285500,0.285500,0.285500,0.285600,0.285700,0.285800,0.285800,0.285700,0.285600,0.285600,0.285500,0.285400,0.285200,0.284800,0.284700,0.284400,0.284300,0.284200,0.284000,0.284000,0.283900,0.283900,0.283800,0.283800,0.283700,0.283700,0.283600,0.283200,0.283000,0.282800,0.282800,0.282800,0.282700,0.282700,0.282500,0.282400,0.282400,0.282400,0.282400,0.282500,1.000000,1.000000,1.000000,0.479800,0.479800,1.000000,0.353000,1.000000,0.353000,1.000000,0.481800,0.482900,0.483000,0.483000,0.482900,0.482500,0.478800,0.478600,0.478000,0.478300,1.000000,1.000000,1.000000,1.000000,0.479700,0.479700,0.479600,0.479500,0.477900,0.477200,0.477200,0.477300,0.478400,0.478400,0.478400,0.478500,0.478600,1.000000,1.000000,1.000000,0.476600,0.476600,0.476700,0.476700,0.476200,0.476000,0.476000,0.475900,0.475700,0.475600,0.475300
1.000000,1.000000,1.000000,1.000000,1.000000,1.000000,1.000000,1.000000,1.000000,1.000000,1.000000,1.000000,1.000000,1.000000,1.000000,1.000000,1.000000,1.000000,1.000000,1.000000,1.000000,1.000000,1.000000,1.000000,1.000000,1.000000,1.000000,1.000000,1.000000,1.000000,1.000000,1.000000,1.000000,1.000000,1.000000,1.000000,0.544300,0.544300,0.544300,0.544400,0.544700,0.544800,0.544700,0.545900,1.000000,1.000000,1.000000,0.544400,0.544500,0.544700,0.544800,0.544700,0.544200,0.544100,0.543400,0.543200,0.543100,0.543000,0.543000,0.543000,0.541400,0.541400,0.541300,0.541500,0.542700,0.541300,0.541400,0.541400,0.541600,0.541800,0.542700,1.000000,0.542500,0.542400,0.541300,0.541300,0.541300,0.541700,0.541700,0.541000,0.541000,0.541000,0.541000,0.540400,0.540400,0.540300,0.540300,0.540300,0.540200,0.540100,0.538800,0.538600,0.538500,0.538500,0.538500,0.538900,0.539300,0.539300,0.537900,0.538000,0.538000,0.538200,0.538200,0.538200,0.538000,0.537800,0.537600,0.537600,1.000000,0.493200,0.493100,0.493100,1.000000,0.290800,0.290800,0.290800,0.290700,0.290700,0.290700,0.290700,0.290700,0.289800,0.289700,0.289700,0.289600,0.289700,0.289700,0.289700,0.289600,0.289600,0.289500,0.289400,0.289200,0.289100,0.289000,0.289000,0.288900,0.288900,0.288900,0.288800,0.288600,0.288600,0.288500,0.288400,0.288300,0.287800,0.287500,0.287400,0.287400,0.287200,0.287100,0.287000,0.286700,0.286600,0.286600,0.286600,0.286700,0.286700,0.286600,0.286400,0.286200,0.286000,0.285900,0.285700,0.285600,0.285400,0.285400,0.285400,0.285400,0.285600,0.285600,0.285700,0.285600,0.285500,0.285500,0.285400,0.285400,0.285400,0.284800,0.284700,0.284400,0.284200,0.284100,0.283900,0.283800,0.283800,0.283800,0.283700,0.283700,0.283700,0.283700,0.283600,0.283400,0.282600,0.282600,0.282600,0.282600,0.282700,0.282700,0.282500,0.282400,0.282400,0.282400,0.282400,0.282500,1.000000,1.000000,0.480000,0.479900,0.479800,1.000000,1.000000,0.351800,0.351700,1.000000,0.482000,0.483000,0.483000,0.483000,0.482900,0.482800,0.482400,0.480400,0.480400,0.480300,0.480300,1.000000,1.000000,1.000000,0.479700,0.479600,0.479600,0.478000,0.476400,0.476500,0.476500,0.476800,0.477000,0.478400,0.478400,0.478600,0.478600,1.000000,1.000000,1.000000,0.476600,0.476600,0.476600,0.476100,0.476100,0.476100,0.476000,0.476000,0.475900,0.475800,0.475400
1.000000,1.000000,1.000000,1.000000,1.000000,1.000000,1.000000,1.000000,1.000000,1.000000,1.000000,1.000000,1.000000,1.000000,1.000000,1.000000,1.000000,1.000000,1.000000,1.000000,1.000000,1.000000,1.000000,1.000000,1.000000,1.000000,1.000000,1.000000,1.000000,1.000000,1.000000,1.000000,1.000000,1.000000,1.000000,1.000000,1.000000,1.000000,0.544400,0.544400,0.544600,0.545200,1.000000,0.546000,0.545900,1.000000,0.545900,0.544300,0.544300,0.544300,0.544800,0.544900,0.544100,0.543700,0.543400,0.543300,0.543200,0.543000,0.543000,0.543000,0.541400,0.541300,0.541200,0.541100,0.541000,0.541000,0.541100,0.541300,0.541700,0.542700,0.542700,0.542600,0.540500,0.541300,0.541300,0.541400,0.541500,0.541600,0.541600,0.541200,0.540900,0.540700,0.540300,0.540300,0.540300,0.540300,0.540300,0.539100,0.538800,0.538800,0.538700,0.538500,0.538400,0.538300,0.538400,0.538400,0.539200,0.539200,0.538800,0.538200,0.538200,0.538200,0.538200,0.538100,0.537900,0.537800,0.537600,0.537600,1.000000,0.494300,0.493100,0.493100,1.000000,1.000000,0.290800,0.290800,0.290700,0.290700,0.290600,0.290500,0.290400,0.289800,0.289700,0.289600,0.289600,0.289600,0.289600,0.289600,0.289600,0.289600,0.289600,0.289400,0.289200,0.289100,0.289000,0.288900,0.288800,0.288700,0.288600,0.288600,0.288500,0.288400,0.288400,0.288300,0.288200,0.287400,0.287300,0.287300,0.287200,0.287000,0.287000,0.286800,0.286600,0.286500,0.286500,0.286600,0.286600,0.286500,0.286400,0.286200,0.286100,0.286000,0.285800,0.285600,0.285500,0.285400,0.285400,0.285400,0.285400,0.285500,0.285500,0.285600,0.285500,0.285400,0.285400,0.285400,0.285300,0.285200,0.284800,0.284700,0.284300,0.284200,0.284000,0.283700,0.283400,0.283400,0.283600,0.283600,0.283600,0.283600,0.283600,0.283600,0.283600,0.282500,0.282500,0.282500,0.282500,0.282500,0.282500,0.282500,0.282400,0.282300,0.282300,0.282300,0.282400,1.000000,0.480100,0.480000,0.479900,0.479900,1.000000,1.000000,1.000000,0.351700,0.481900,0.481900,0.481900,0.483000,0.483000,0.482900,0.482800,0.482800,0.480400,0.480400,0.480300,0.480300,1.000000,1.000000,1.000000,0.479600,0.479600,0.478400,0.476400,0.476400,0.476500,0.476500,0.476700,0.476900,0.478300,0.478400,1.000000,1.000000,1.000000,1.000000,1.000000,1.000000,1.000000,0.476200,0.476100,0.476100,0.476100,0.476100,0.476200,0.476200,0.476200,0.476000
1.000000,1.000000,1.000000,1.000000,1.000000,1.000000,1.000000,1.000000,1.000000,1.000000,0.754700,0.755000,1.000000,1.000000,1.000000,1.000000,1.000000,1.000000,1.000000,1.000000,1.000000,1.000000,1.000000,1.000000,1.000000,1.000000,1.000000,1.000000,1.000000,1.000000,1.000000,1.000000,1.000000,1.000000,1.000000,1.000000,1.000000,0.544400,0.544400,0.544400,0.546100,0.546100,1.000000,0.546000,0.545900,0.545900,0.545800,0.544200,0.544200,0.544200,0.544200,1.000000,0.545000,0.543600,0.543400,0.543300,0.543300,0.544800,0.545400,0.544200,0.542900,0.541400,0.541000,0.541000,0.540900,0.540900,0.540900,0.541000,0.542600,0.542700,0.542700,0.540500,0.540500,0.541300,0.541400,0.541500,0.541600,0.541600,0.541500,0.540900,0.540500,0.539800,0.539600,0.539600,0.540100,0.540200,0.539300,0.538300,0.538400,0.538700,0.538700,0.538600,0.538400,0.538300,0.538300,0.538400,0.539000,0.538900,0.538700,0.538500,0.538300,0.538200,0.538200,0.537000,0.536800,0.536700,0.537600,0.537600,1.000000,0.494400,0.493300,0.493200,1.000000,0.291000,0.290900,0.290900,0.290800,0.290700,0.290600,0.290300,0.290200,0.289900,0.289800,0.289600,0.289500,0.289500,0.289500,0.289500,0.289500,0.289600,0.289600,0.289500,0.289400,0.289200,0.289000,0.288700,0.288700,0.288600,0.288600,0.288500,0.288400,0.288400,0.288400,0.288300,0.288300,0.287300,0.287300,0.287200,0.287200,0.287000,0.286900,0.286800,0.286600,0.286500,0.286500,0.286500,0.286500,0.286400,0.286200,0.286100,0.286100,0.286000,0.285900,0.285600,0.285500,0.285400,0.285300,0.285300,0.285200,0.285200,0.285200,0.285100,0.285100,0.285100,0.285100,0.285100,0.285000,0.284900,0.284700,0.284600,0.284200,0.283900,0.283700,0.283500,0.283400,0.283300,0.283300,0.283300,0.283300,0.283300,0.283300,0.283400,0.282700,0.282400,0.282300,0.282300,0.282300,0.282400,0.282500,0.282400,0.282400,0.282300,0.282300,0.282300,0.282300,1.000000,1.000000,0.480300,0.480100,0.480000,0.479900,0.353100,1.000000,0.351700,0.481800,0.481800,0.481800,0.483000,0.483000,0.482900,0.482900,0.481900,0.480500,0.480400,0.480300,0.480200,1.000000,1.000000,1.000000,0.478400,0.478400,0.478400,0.477200,0.476400,0.476500,0.476500,0.476700,0.478200,0.478200,1.000000,1.000000,1.000000,1.000000,1.000000,1.000000,1.000000,1.000000,1.000000,0.475900,0.476000,0.476000,0.476100,0.476200,0.476300,0.476300,0.476300
1.000000,1.000000,1.000000,1.000000,1.000000,1.000000,0.760100,0.760000,0.757000,0.756800,0.756300,0.755000,1.000000,1.000000,1.000000,1.000000,1.000000,1.000000,1.000000,1.000000,1.000000,1.000000,1.000000,1.000000,1.000000,1.000000,1.000000,1.000000,1.000000,1.000000,1.000000,1.000000,1.000000,1.000000,1.000000,1.000000,1.000000,0.546600,0.546600,0.546400,0.546300,0.546100,1.000000,0.545900,0.545800,0.545800,0.545800,0.544200,0.544200,0.542600,0.542500,1.000000,0.545000,0.545100,0.543500,0.543400,0.545300,0.545400,0.545400,0.545400,0.544100,0.542900,0.541300,1.000000,0.540900,0.540900,0.540900,0.540900,0.542100,0.542600,0.542600,1.000000,0.540500,0.541400,0.541600,0.541600,0.541600,0.540600,0.540400,0.540500,0.539700,0.539600,0.539600,0.539600,0.539600,0.539400,0.538200,0.538200,0.538300,0.538600,0.538700,0.538600,0.538400,0.537000,0.537000,0.537000,0.538700,0.538800,0.538700,0.538600,0.538400,0.538000,0.537300,0.536900,0.536800,0.536600,0.536500,0.536400,1.000000,0.494400,0.494400,0.493300,1.000000,0.291000,0.290900,0.290900,0.290800,0.290700,0.290500,0.290300,0.290200,0.289900,0.289800,0.289600,0.289500,0.289500,0.289400,0.289500,0.289500,0.289500,0.289600,0.289500,0.289400,0.289300,0.289000,0.288600,0.288600,0.288500,0.288500,0.288500,0.288400,0.288400,0.288400,0.288300,0.288300,0.287300,0.287300,0.287200,0.287200,0.287000,0.286900,0.286800,0.286600,0.286600,0.286500,0.286400,0.286400,0.286200,0.286100,0.286100,0.286100,0.286100,0.285900,0.285600,0.285500,0.285400,0.285300,0.285300,0.285200,0.285100,0.285000,0.285000,0.285000,0.285000,0.285000,0.285000,0.284900,0.284800,0.284700,0.284600,0.284200,0.283800,0.283700,0.283500,0.283400,0.283300,0.283200,0.283200,0.283100,0.283100,0.283200,0.283100,0.282600,0.282400,0.282300,0.282200,0.282200,0.282300,0.282400,0.282400,0.282400,0.282300,0.282200,0.282200,0.282300,1.000000,1.000000,0.480400,0.480400,0.480600,0.480000,0.353100,1.000000,0.353100,0.481800,0.481800,0.481800,0.481800,0.482500,0.482900,0.481800,0.481800,0.481000,0.480300,0.480200,0.479800,0.479600,1.000000,1.000000,1.000000,0.478400,0.478400,0.477300,0.477400,0.477500,0.478000,0.478200,0.478200,0.478200,0.478300,1.000000,1.000000,1.000000,1.000000,1.000000,1.000000,1.000000,1.000000,0.475800,0.475800,0.476200,0.476200,0.476300,0.476400,0.476400,0.476400
1.000000,1.000000,1.000000,1.000000,1.000000,1.000000,1.000000,1.000000,0.758400,0.757100,0.756800,0.756700,1.000000,1.000000,1.000000,1.000000,1.000000,1.000000,1.000000,1.000000,1.000000,1.000000,1.000000,1.000000,1.000000,1.000000,1.000000,1.000000,1.000000,1.000000,0.750200,1.000000,1.000000,1.000000,1.000000,1.000000,1.000000,1.000000,1.000000,0.546600,0.546500,0.546400,1.000000,0.545900,0.545800,0.545800,0.544200,0.544200,1.000000,0.542600,0.542400,0.542700,1.000000,0.545100,0.545100,0.545100,0.545300,0.545400,0.544800,0.543700,0.545400,1.000000,0.544100,0.541900,0.540800,0.540800,0.540800,0.540800,1.000000,0.540700,0.540600,0.540600,0.540500,0.541600,0.541600,0.541600,0.540300,0.540200,0.540200,0.540100,0.539600,0.539500,0.539500,0.539500,0.539500,0.538200,0.538200,0.538200,0.538300,0.538500,0.538700,0.538700,0.538200,0.537100,0.537100,0.537100,0.538100,0.538600,0.538600,0.538500,0.537500,0.537400,0.537300,0.537000,0.536800,0.536600,0.536400,0.536400,1.000000,0.494400,1.000000,1.000000,0.291000,0.291000,0.291000,0.291000,0.290900,0.290700,0.290400,0.290200,0.290100,0.289900,0.289800,0.289600,0.289500,0.289400,0.289400,0.289500,0.289500,0.289500,0.289500,0.289400,0.289400,0.289300,0.288400,0.288400,0.288400,0.288400,0.288400,0.288400,0.288400,0.288400,0.288400,0.288300,0.288200,0.287300,0.287300,0.287200,0.287200,0.287000,0.287000,0.286900,0.286700,0.286600,0.286400,0.286300,0.286200,0.286100,0.286100,0.286100,0.286100,0.286100,0.286400,0.285900,0.285600,0.285400,0.285400,0.285300,0.285100,0.285000,0.285000,0.285000,0.285000,0.284900,0.284900,0.284900,0.284800,0.284700,0.284600,0.284600,0.284300,0.283900,0.283800,0.283600,0.283500,0.283300,0.283200,0.283100,0.283000,0.283000,0.283000,0.282900,0.282600,0.282500,0.282300,0.282000,0.281800,0.281800,0.282000,0.282200,0.282200,0.282200,0.282100,0.282100,0.282200,1.000000,1.000000,0.480800,0.481500,0.481500,0.481500,1.000000,0.353200,1.000000,0.481700,0.481600,0.480200,0.480000,0.480100,0.480100,0.481000,0.481800,0.481800,0.480200,0.479600,0.479600,0.479600,0.479500,1.000000,1.000000,1.000000,0.478400,0.478600,0.478800,0.479000,0.479000,0.478900,0.478400,0.478300,0.477200,1.000000,1.000000,1.000000,1.000000,1.000000,1.000000,1.000000,1.000000,0.475700,1.000000,0.476300,0.476300,0.476400,0.476500,0.476500,0.475700
1.000000,1.000000,1.000000,1.000000,1.000000,1.000000,1.000000,1.000000,1.000000,0.757100,0.755800,0.755600,1.000000,0.756500,1.000000,1.000000,1.000000,1.000000,1.000000,1.000000,1.000000,1.000000,1.000000,1.000000,1.000000,1.000000,1.000000,1.000000,1.000000,0.751000,0.751000,0.751000,1.000000,1.000000,1.000000,1.000000,1.000000,1.000000,0.546600,0.546600,0.546600,0.546600,0.545900,0.545700,0.545700,0.544000,0.543200,0.543000,1.000000,0.542300,0.539400,0.540100,0.542100,0.543100,0.543400,0.543600,0.543600,0.543300,0.543300,0.543300,0.543600,1.000000,0.545700,0.544000,0.543100,0.540800,0.540800,0.540700,1.000000,0.540700,0.540700,0.540800,0.541500,0.541600,0.541700,0.541700,0.540200,0.540200,0.540100,0.539600,0.539500,0.539500,0.539500,0.539500,0.539500,0.538200,0.538200,0.538300,0.538400,0.538600,0.538700,0.538800,0.538800,0.537200,0.537200,0.537100,0.537500,0.538200,0.538200,0.537900,0.537500,0.537400,0.537300,0.537000,0.536800,0.536500,0.536400,0.536400,1.000000,0.493400,0.493400,1.000000,0.291100,0.291100,0.291000,0.291000,0.290700,0.290200,0.290100,0.290000,0.290000,0.289900,0.289800,0.289600,0.289500,0.289400,0.289400,0.289400,0.289500,0.289400,0.289400,0.289400,0.289300,0.289200,0.288500,0.288400,0.288300,0.288300,0.288400,0.288400,0.288400,0.288400,0.288300,0.288300,0.288200,0.288100,0.287400,0.287400,0.287300,0.287200,0.287000,0.286900,0.286700,0.286600,0.286400,0.286300,0.286200,0.286100,0.286100,0.286100,0.286300,0.286600,0.286600,0.285800,0.285700,0.285500,0.285400,0.285300,0.285100,0.285000,0.285000,0.285000,0.284900,0.284900,0.284800,0.284700,0.284700,0.284600,0.284500,0.284500,0.284400,0.284200,0.283900,0.283700,0.283600,0.283400,0.283200,0.283100,0.283000,0.282900,0.282800,0.282800,0.282600,0.282500,0.282400,0.281700,0.281700,0.281800,0.281800,0.282100,0.282200,0.282100,0.282000,0.282100,0.282100,1.000000,1.000000,0.481000,0.481500,0.481500,0.481600,1.000000,0.353200,0.481500,0.481500,0.481400,0.479900,0.479900,0.480000,0.480000,0.480100,0.480900,0.481800,0.481800,0.479600,0.479600,0.479500,0.479500,1.000000,1.000000,1.000000,0.478200,0.478400,0.478300,0.477600,0.477600,0.478700,0.478600,0.477200,1.000000,1.000000,1.000000,1.000000,1.000000,1.000000,1.000000,1.000000,1.000000,0.474800,0.475400,0.475400,0.476300,0.476400,0.476500,0.475900,0.475000
1.000000,1.000000,1.000000,1.000000,1.000000,1.000000,1.000000,1.000000,0.757100,1.000000,0.755800,0.754200,1.000000,1.000000,1.000000,1.000000,1.000000,1.000000,1.000000,1.000000,1.000000,1.000000,1.000000,1.000000,1.000000,1.000000,1.000000,1.000000,1.000000,0.751000,0.751000,0.751000,1.000000,1.000000,1.000000,1.000000,0.547900,1.000000,0.546600,0.546600,0.546700,0.546700,0.546700,0.545600,0.544100,0.544000,0.543300,0.543100,0.543000,0.542100,0.539400,0.540000,0.541900,0.543000,0.543100,0.543200,0.543300,0.543200,0.543200,0.543200,0.543300,1.000000,0.545800,0.544000,0.542200,0.540800,0.540500,0.539100,0.539100,0.540200,0.540800,0.541000,0.541400,0.541600,0.541600,0.541600,0.540100,0.540100,0.540000,0.539600,0.539500,0.539500,0.539500,0.539500,0.539500,0.539500,0.538300,0.538300,0.538400,0.538600,0.538800,0.538800,0.538900,0.537600,0.537600,0.537600,0.538000,0.538100,0.538100,0.538000,0.537400,0.537300,0.537200,0.537000,0.536900,0.536500,0.536400,0.536400,1.000000,0.493400,0.493400,0.493400,1.000000,0.291100,0.291000,0.291000,0.290200,0.290100,0.290000,0.290000,0.290000,0.289800,0.289700,0.289600,0.289500,0.289400,0.289400,0.289400,0.289400,0.289300,0.289300,0.289200,0.289100,0.289000,0.288800,0.288400,0.288300,0.288200,0.288100,0.288200,0.288200,0.288200,0.288200,0.288200,0.288100,0.288000,0.287900,0.287500,0.287400,0.287200,0.287100,0.287000,0.286700,0.286600,0.286400,0.286300,0.286200,0.286200,0.286200,0.286200,0.286500,0.286700,0.286800,0.285800,0.285700,0.285700,0.285600,0.285400,0.285200,0.285100,0.285000,0.285000,0.285000,0.284900,0.284800,0.284700,0.284600,0.284600,0.284500,0.284500,0.284400,0.284300,0.284200,0.283900,0.283700,0.283500,0.283400,0.283200,0.283000,0.282900,0.282800,0.282800,0.282700,0.282600,0.281600,0.281600,0.281600,0.281600,0.281800,0.281800,0.281900,0.281700,0.281800,0.281800,0.281900,1.000000,0.477500,0.477500,0.480500,0.481500,0.481600,0.353200,0.353200,1.000000,1.000000,0.480900,0.479800,0.479800,0.479900,0.480000,0.480000,0.480100,0.481800,0.481800,0.481100,0.479500,0.479400,0.478100,1.000000,1.000000,1.000000,1.000000,0.477800,0.477400,0.477100,0.477100,0.478600,0.478500,0.478000,1.000000,1.000000,1.000000,1.000000,1.000000,1.000000,1.000000,1.000000,1.000000,0.473400,0.473700,0.474200,0.475300,0.476500,0.476200,0.475000,0.475000
1.000000,1.000000,1.000000,1.000000,1.000000,1.000000,1.000000,1.000000,0.755600,1.000000,0.754300,0.754300,1.000000,1.000000,1.000000,1.000000,1.000000,1.000000,1.000000,1.000000,1.000000,1.000000,1.000000,1.000000,1.000000,1.000000,1.000000,1.000000,1.000000,1.000000,0.751000,0.751000,1.000000,1.000000,1.000000,1.000000,0.547900,0.547900,0.546600,0.546600,0.546600,0.545500,0.545100,0.544800,0.544100,0.544000,0.543500,0.544900,0.543500,1.000000,0.539400,0.540100,0.541900,0.543000,0.543000,0.543000,0.543000,0.543000,0.543000,0.543100,1.000000,1.000000,1.000000,1.000000,0.542900,0.542200,0.540800,0.539000,0.539000,0.539000,0.540900,0.541100,0.541400,0.541600,0.541600,0.539900,0.540000,0.540100,0.540200,0.540000,0.539500,0.539500,0.539500,0.540600,0.540600,0.540500,0.540400,0.539800,0.539000,0.539000,0.538900,0.538900,0.538900,0.537600,0.537600,0.537700,0.538000,0.538100,0.538100,0.537600,0.537300,0.536700,0.536600,0.536600,0.536700,0.536400,0.536400,0.536300,0.536300,0.493400,0.493400,0.493400,1.000000,0.291000,0.291000,0.291000,0.290100,0.290000,0.290000,0.289900,0.289900,0.289800,0.289700,0.289600,0.289400,0.289400,0.289400,0.289400,0.289300,0.289300,0.289200,0.289000,0.289000,0.288900,0.288800,0.288600,0.288300,0.288200,0.288100,0.288000,0.288000,0.287900,0.288000,0.288100,0.288000,0.288000,0.287900,0.287700,0.287500,0.287200,0.287100,0.287000,0.286700,0.286600,0.286400,0.286300,0.286300,0.286200,0.286200,0.286300,0.286600,0.286700,0.286800,0.286000,0.285700,0.285700,0.285600,0.285400,0.285200,0.285000,0.285000,0.285000,0.285000,0.284900,0.284800,0.284600,0.284500,0.284500,0.284400,0.284400,0.284300,0.284300,0.284200,0.283900,0.283800,0.283600,0.283400,0.283300,0.283000,0.283000,0.282800,0.282800,0.282700,0.282700,0.281600,0.281600,0.281600,0.281600,0.281700,0.281800,0.281600,0.281500,0.281600,0.281700,0.281800,1.000000,0.477500,0.477500,0.477500,0.480400,1.000000,0.353100,0.353100,0.481000,0.481000,0.479900,0.479800,0.479800,0.479800,0.479900,0.480000,0.480000,0.481800,0.481700,0.481600,0.480900,0.480000,0.478400,1.000000,1.000000,1.000000,1.000000,0.477400,0.477200,0.477100,0.477000,0.477300,0.478300,0.478300,1.000000,1.000000,1.000000,1.000000,1.000000,1.000000,1.000000,1.000000,1.000000,0.473300,0.473400,0.474100,0.474100,0.474100,0.474100,0.474300,0.475000
1.000000,1.000000,1.000000,1.000000,1.000000,1.000000,1.000000,1.000000,1.000000,1.000000,1.000000,1.000000,1.000000,1.000000,1.000000,1.000000,1.000000,1.000000,1.000000,1.000000,1.000000,0.750400,0.746300,1.000000,0.742100,1.000000,1.000000,1.000000,1.000000,1.000000,1.000000,1.000000,1.000000,1.000000,1.000000,1.000000,0.547900,0.547900,0.547900,0.546600,0.546300,0.545000,0.545000,0.544900,0.544500,0.544400,0.547100,0.547200,1.000000,0.545000,1.000000,0.545000,0.545000,0.544400,0.543000,0.543000,0.543000,0.543000,0.543000,0.543000,0.543000,0.543400,0.544400,0.544400,0.543400,0.542300,0.542200,0.540000,0.538900,0.538900,0.541000,0.541300,0.541500,0.541600,0.539500,0.539500,0.539600,0.539700,0.540200,0.540200,0.539500,0.539500,0.539500,0.539500,0.540600,0.540300,0.540200,0.539600,0.539000,0.539000,0.538900,0.538900,0.538900,0.537600,0.537700,0.537800,0.538000,0.538100,0.537400,0.536800,0.536600,0.536500,0.536500,0.536500,0.536400,0.536400,0.536300,0.536300,0.536300,0.493400,0.493400,0.493400,1.000000,0.291000,0.290900,0.290900,0.290000,0.290000,0.290000,0.289900,0.289900,0.289800,0.289600,0.289500,0.289400,0.289300,0.289300,0.289400,0.289300,0.289000,0.288800,0.288700,0.288700,0.288600,0.288600,0.288500,0.288300,0.288200,0.288000,0.287900,0.287600,0.287500,0.287500,0.287700,0.287900,0.287900,0.287800,0.287600,0.287400,0.287100,0.287000,0.286900,0.286700,0.286600,0.286400,0.286300,0.286300,0.286200,0.286300,0.286400,0.286600,0.286700,0.286700,0.286400,0.285700,0.285600,0.285500,0.285300,0.285200,0.285000,0.285000,0.285000,0.285000,0.284900,0.284800,0.284600,0.284500,0.284400,0.284300,0.284300,0.284200,0.284200,0.284100,0.283900,0.283800,0.283600,0.283500,0.283400,0.283200,0.283100,0.282900,0.282800,0.282800,0.282700,0.281700,0.281600,0.281600,0.281700,0.281600,0.281400,0.281300,0.281300,0.281400,0.281600,0.281700,1.000000,0.477500,0.477500,0.477500,0.477500,1.000000,1.000000,1.000000,0.480800,0.479800,0.479800,0.479800,0.479800,0.479800,0.479800,0.479800,0.478800,0.479000,0.480800,0.480900,0.480400,0.478900,0.478900,1.000000,1.000000,1.000000,1.000000,0.477300,0.477200,0.477000,0.477000,0.476900,0.477800,0.476600,1.000000,1.000000,1.000000,1.000000,1.000000,1.000000,1.000000,1.000000,1.000000,0.473300,0.473400,0.474100,0.474100,0.474100,0.473200,0.473800,0.474400
1.000000,1.000000,1.000000,1.000000,1.000000,1.000000,1.000000,1.000000,1.000000,1.000000,0.752300,0.752300,1.000000,1.000000,1.000000,1.000000,1.000000,1.000000,1.000000,1.000000,1.000000,0.750400,0.750400,0.746400,0.742100,1.000000,1.000000,1.000000,1.000000,1.000000,1.000000,1.000000,1.000000,1.000000,1.000000,1.000000,1.000000,0.547900,0.547900,0.546700,0.545800,0.545000,0.545000,0.544900,0.544800,0.547100,0.547200,0.547200,1.000000,0.545000,0.545000,0.545000,0.545000,0.545000,0.544500,0.542900,0.542900,0.542900,0.542900,0.543000,0.543000,0.544300,0.544500,0.544600,0.544400,0.543200,0.542200,0.540900,0.538800,0.538800,0.538800,0.541400,0.541400,0.541600,0.539300,0.539300,0.539500,0.539600,0.540500,0.540000,0.539500,0.539500,0.539400,0.539400,0.538400,0.538600,0.538600,0.539100,0.538900,0.538900,0.538800,0.538800,0.538800,0.537500,0.537600,0.537700,0.538000,0.538100,0.536700,0.536700,0.536600,0.536500,0.536500,0.536400,0.536400,0.536300,0.536300,0.536300,0.536200,0.493400,0.493400,0.493400,1.000000,0.290900,0.290800,0.290800,0.290000,0.290000,0.289900,0.289900,0.289900,0.289700,0.289600,0.289500,0.289300,0.289200,0.289300,0.289300,0.289300,0.288900,0.288800,0.288600,0.288600,0.288600,0.288500,0.288400,0.288300,0.288200,0.288000,0.287900,0.287600,0.287400,0.287400,0.287400,0.287600,0.287800,0.287800,0.287300,0.287200,0.287000,0.287000,0.286800,0.286600,0.286600,0.286400,0.286300,0.286300,0.286300,0.286300,0.286300,0.286500,0.286600,0.286600,0.285900,0.285600,0.285500,0.285400,0.285200,0.285000,0.284900,0.284900,0.285000,0.285000,0.284900,0.284800,0.284600,0.284400,0.284400,0.284200,0.284200,0.284100,0.284100,0.284000,0.283800,0.283800,0.283600,0.283500,0.283400,0.283200,0.283100,0.283000,0.282900,0.282800,0.282700,0.282600,0.281700,0.281700,0.281700,0.281600,0.281400,0.281300,0.281300,0.281400,0.281500,0.281600,1.000000,0.477500,0.477500,0.477500,0.477500,1.000000,0.349800,1.000000,0.480800,0.479800,0.479800,0.479800,0.479800,0.479800,0.479800,0.479800,0.478800,0.478800,0.478800,0.478800,0.478800,0.478900,0.478900,0.478200,1.000000,1.000000,1.000000,0.477300,0.477300,0.477000,0.477000,0.476900,0.476700,0.476600,1.000000,1.000000,1.000000,1.000000,1.000000,1.000000,1.000000,1.000000,0.473200,0.473400,0.474200,0.474200,0.474200,0.473200,0.473100,0.473100,0.473800
1.000000,1.000000,1.000000,1.000000,1.000000,1.000000,1.000000,1.000000,1.000000,1.000000,1.000000,1.000000,1.000000,1.000000,1.000000,1.000000,1.000000,1.000000,1.000000,1.000000,1.000000,0.750400,0.750400,0.746400,0.742100,1.000000,1.000000,1.000000,1.000000,1.000000,1.000000,1.000000,1.000000,1.000000,1.000000,1.000000,1.000000,0.546900,0.546900,0.546200,0.545000,0.545000,0.545000,0.545000,0.545000,0.548400,0.547200,0.546000,0.546000,0.546000,0.545000,0.545000,0.545000,0.545000,0.545000,0.542900,0.542900,0.542800,0.542900,0.542900,0.544300,0.544400,0.544500,0.544600,0.544300,0.544200,0.542200,0.542200,0.538800,0.538800,0.538700,0.541200,0.541400,0.541500,0.539100,0.539300,0.539400,0.540800,0.540900,0.539500,0.539500,0.538100,0.538100,0.537900,0.537200,0.537300,0.537300,0.538600,0.538700,0.538700,0.538700,0.538700,0.537500,0.537300,0.537300,0.537200,0.537300,0.536900,0.536700,0.536700,0.536600,0.536500,0.536500,0.535300,0.535300,0.535300,0.536200,0.536200,0.536200,1.000000,0.493300,0.493200,1.000000,0.290800,0.290500,0.290400,0.290000,0.290000,0.289900,0.289800,0.289800,0.289600,0.289500,0.289300,0.289200,0.289200,0.289200,0.289300,0.289300,0.288900,0.288700,0.288600,0.288600,0.288500,0.288400,0.288400,0.288300,0.288300,0.288000,0.287800,0.287600,0.287400,0.287400,0.287400,0.287400,0.287400,0.287400,0.287200,0.287100,0.287000,0.286900,0.286800,0.286600,0.286500,0.286400,0.286400,0.286300,0.286200,0.286200,0.286200,0.286300,0.286400,0.285400,0.285300,0.285200,0.285200,0.285000,0.284900,0.284800,0.284800,0.284800,0.284800,0.284800,0.284800,0.284700,0.284500,0.284400,0.284100,0.283900,0.283900,0.283800,0.283800,0.283800,0.283700,0.283700,0.283600,0.283500,0.283400,0.283200,0.283100,0.283000,0.282900,0.282700,0.282700,0.282500,0.282200,0.282000,0.281700,0.281600,0.281400,0.281300,0.281300,0.281400,0.281500,0.281600,0.281700,1.000000,0.477500,0.477500,0.477500,1.000000,0.348900,1.000000,0.479700,0.479700,0.479800,0.479800,0.479800,0.479800,0.479800,0.479800,0.478800,0.478800,0.478800,0.478800,0.478800,0.478800,0.478900,0.478000,0.477200,1.000000,1.000000,1.000000,0.477900,0.477900,0.476900,0.476800,0.476700,0.476700,1.000000,1.000000,1.000000,1.000000,1.000000,1.000000,1.000000,1.000000,0.473500,0.473900,0.474800,0.474800,0.474300,0.473100,0.473000,0.473000,0.473000
