1.000000,1.000000,1.000000,1.000000,1.000000,1.000000,1.000000,1.000000,0.551500,1.000000,1.000000,1.000000,1.000000,1.000000,1.000000,1.000000,1.000000,1.000000,1.000000,0.549200,0.550800,0.550900,0.551100,0.551400,0.549200,0.544900,0.542800,0.542800,0.540900,1.000000,0.180100,0.179500,0.179500,0.179400,0.179200,0.179100,0.179000,0.179000,0.179000,0.178900,0.178800,0.178700,0.178600,0.178600,0.178300,0.178000,0.177900,0.177900,0.177900,0.177900,0.178000,0.178000,0.177800,0.177800,0.177900,0.177900,0.178200,0.178300,0.178400,0.178300,0.177400,0.177300,0.177200,0.177200,0.177100,0.177100,0.177100,0.176900,0.176800,0.176600,0.176600,0.176500,0.176400,0.176300,0.176200,0.176200,0.176200,0.176200,0.176300,0.176200,0.176200,0.176100,0.176000,0.176000,0.175800,0.175700,0.175700,0.175700,0.175500,0.175400,0.175200,0.175100,0.175100,0.175000,0.174900,0.174800,0.174800,0.174700,0.174600,0.174600,0.174500,0.174500,0.174500,0.174300,0.174200,0.174000,0.174000,0.173900,0.173900,0.173900,0.173800,0.173800,0.173600,0.173500,0.173400,0.173300,0.173300,0.173200,0.173100,0.172900,0.172900,0.172600,0.172600,0.172500,0.172400,0.172400,0.172400,0.172500,0.172600,0.172700,0.172700,0.172600,0.172500,0.172300,0.172200,0.172100,0.171900,0.171900,0.171800,0.171700,0.171600,0.171500,0.171500,0.171400,0.171300,0.171300,0.171200,0.171200,0.171100,0.171000,0.171000,0.170800,0.170800,0.170700,0.170600,0.170600,0.170500,0.170400,0.170400,0.170200,0.170200,0.170100,0.170100,0.170100,0.170000,0.170000,0.169900,0.169800,0.169700,0.169600,0.169600,0.169500,0.169400,0.169400,0.169300,0.169300,0.169300,0.169300,0.169300,0.169300,1.000000,1.000000,1.000000,1.000000,1.000000,0.482100,0.482200,0.483000,0.483300,0.483300,0.483200,0.483100,0.483000,0.481200,0.481000,0.480900,0.481000,0.481200,0.481300,0.482000,0.480300,0.480300,0.480300,0.480300,0.480300,0.480300,0.480300,0.480300,0.480300,0.480300,1.000000,0.348200,0.348200,1.000000,1.000000,1.000000,0.477800,0.477800,0.477700,0.477600,0.477600,0.477500,0.477500,0.477600,0.477900,0.478000,0.477900,0.478000,0.479600,0.479600,0.479600,0.477000,0.477000,0.476800,0.476800,0.476800,0.476900,0.477000,0.478400,1.000000,1.000000,1.000000,0.476400,0.476400,0.476500,0.475600,0.474400,0.473400,0.473600,0.473700,0.473800,0.473900,0.474000,0.473700,0.472900,0.473000
1.000000,1.000000,1.000000,1.000000,1.000000,1.000000,0.554200,1.000000,1.000000,1.000000,1.000000,1.000000,1.000000,1.000000,1.000000,1.000000,0.549000,1.000000,1.000000,0.549300,0.549600,0.549800,0.550800,0.551400,0.551400,0.549600,0.548400,0.542800,0.540800,1.000000,0.180300,0.179600,0.179500,0.179400,0.179200,0.179100,0.179000,0.179000,0.179000,0.178900,0.178800,0.178700,0.178600,0.178600,0.178400,0.178200,0.178000,0.177900,0.177900,0.177900,0.177900,0.177800,0.177700,0.177700,0.177700,0.177800,0.178100,0.178200,0.178300,0.178000,0.177300,0.177200,0.177100,0.177100,0.177100,0.177100,0.177000,0.176900,0.176800,0.176700,0.176600,0.176600,0.176400,0.176300,0.176100,0.176100,0.176100,0.176200,0.176200,0.176200,0.176100,0.176100,0.176000,0.175900,0.175800,0.175600,0.175600,0.175600,0.175400,0.175300,0.175000,0.174900,0.174900,0.174800,0.174700,0.174600,0.174600,0.174600,0.174500,0.174500,0.174500,0.174500,0.174500,0.174300,0.174100,0.173900,0.173800,0.173800,0.173700,0.173700,0.173700,0.173600,0.173500,0.173400,0.173400,0.173300,0.173300,0.173200,0.173100,0.173000,0.172800,0.172600,0.172500,0.172500,0.172400,0.172300,0.172400,0.172400,0.172600,0.172600,0.172700,0.172500,0.172400,0.172200,0.172200,0.172100,0.172000,0.171900,0.171800,0.171800,0.171700,0.171600,0.171500,0.171400,0.171300,0.171300,0.171200,0.171200,0.171100,0.171000,0.170900,0.170800,0.170800,0.170600,0.170600,0.170500,0.170500,0.170400,0.170300,0.170300,0.170200,0.170200,0.170200,0.170200,0.170100,0.170100,0.170000,0.169800,0.169800,0.169700,0.169600,0.169600,0.169500,0.169400,0.169300,0.169300,0.169300,0.169300,0.169300,0.169300,1.000000,1.000000,1.000000,1.000000,1.000000,0.482200,0.482200,0.483000,0.483300,0.483300,0.483200,0.483100,0.483100,0.483100,0.482900,0.482400,0.481200,0.481300,0.482300,0.482200,0.481700,0.480300,0.480300,0.480300,0.480300,0.480300,0.480400,0.480400,0.480400,0.480400,1.000000,0.347500,0.348200,1.000000,1.000000,1.000000,0.477700,0.477700,0.477600,0.477600,0.477400,0.477400,0.477400,0.477700,0.478000,0.478000,0.477800,0.477800,0.479600,0.479600,0.479600,0.477000,0.477000,0.476900,0.476900,0.476800,0.476800,0.478100,0.478400,1.000000,1.000000,1.000000,1.000000,0.476600,1.000000,0.475500,0.473400,0.473400,1.000000,0.473600,1.000000,0.475200,0.475300,0.474100,0.472900,0.474000
1.000000,1.000000,1.000000,1.000000,1.000000,0.554200,0.554200,1.000000,1.000000,1.000000,1.000000,1.000000,1.000000,1.000000,1.000000,1.000000,0.547600,0.547700,1.000000,0.547900,0.549600,0.549800,0.549800,0.551400,0.551500,1.000000,0.548400,0.548400,1.000000,1.000000,0.180300,0.180300,0.179800,0.179300,0.179100,0.179100,0.179000,0.179000,0.179000,0.178900,0.178800,0.178700,0.178600,0.178600,0.178400,0.178300,0.178100,0.178000,0.177900,0.177900,0.177700,0.177600,0.177500,0.177500,0.177500,0.177500,0.177700,0.177800,0.177500,0.177400,0.177200,0.177100,0.177100,0.177100,0.177100,0.177000,0.177000,0.176800,0.176700,0.176600,0.176600,0.176500,0.176300,0.176200,0.176000,0.176000,0.176000,0.176000,0.176000,0.176000,0.175900,0.175900,0.175900,0.175800,0.175700,0.175700,0.175600,0.175500,0.175300,0.175200,0.174900,0.174800,0.174800,0.174700,0.174600,0.174500,0.174500,0.174500,0.174500,0.174600,0.174600,0.174600,0.174500,0.174200,0.173900,0.173800,0.173700,0.173700,0.173700,0.173700,0.173600,0.173600,0.173500,0.173400,0.173400,0.173300,0.173300,0.173300,0.173200,0.173100,0.172800,0.172600,0.172500,0.172500,0.172400,0.172300,0.172300,0.172400,0.172500,0.172600,0.172600,0.172500,0.172400,0.172200,0.172200,0.172100,0.172000,0.171900,0.171900,0.171800,0.171800,0.171600,0.171600,0.171400,0.171300,0.171300,0.171200,0.171100,0.171000,0.170900,0.170900,0.170800,0.170700,0.170600,0.170600,0.170600,0.170500,0.170400,0.170300,0.170300,0.170300,0.170300,0.170300,0.170300,0.170200,0.170200,0.170100,0.169900,0.169800,0.169700,0.169700,0.169600,0.169500,0.169400,0.169300,0.169300,0.169300,0.169300,0.169300,0.169300,1.000000,1.000000,1.000000,1.000000,1.000000,0.482200,0.482200,0.482100,0.483400,0.483400,0.483200,0.483100,0.483100,0.483100,0.483100,0.483000,0.482400,0.482400,0.482400,0.482300,0.481900,0.480300,0.480300,0.480300,0.480400,0.480400,0.480500,0.480500,0.480500,1.000000,0.346700,0.346700,0.346700,1.000000,1.000000,1.000000,1.000000,1.000000,0.477500,0.477300,0.477300,0.477300,0.477400,0.477900,0.477900,0.477700,0.477400,0.477400,0.477500,1.000000,0.479600,0.477000,0.477000,0.476900,0.476900,0.476800,0.476800,0.478300,1.000000,1.000000,1.000000,1.000000,1.000000,1.000000,1.000000,1.000000,1.000000,1.000000,0.473400,0.473500,1.000000,0.475200,1.000000,1.000000,0.475500,0.477400
1.000000,1.000000,1.000000,1.000000,1.000000,0.550000,0.551400,1.000000,1.000000,1.000000,0.550000,0.550000,1.000000,1.000000,1.000000,0.547600,0.547600,0.547700,0.547800,0.547800,1.000000,0.548800,0.548800,0.550000,1.000000,1.000000,0.549100,0.549100,1.000000,1.000000,0.180200,0.179700,0.179200,0.179100,0.179100,0.179000,0.179000,0.179000,0.179000,0.178800,0.178800,0.178600,0.178600,0.178600,0.178500,0.178400,0.178200,0.178100,0.178000,0.177900,0.177700,0.177600,0.177400,0.177400,0.177400,0.177500,0.177600,0.177500,0.177400,0.177300,0.177200,0.177100,0.177100,0.177100,0.177100,0.177000,0.177000,0.176800,0.176700,0.176600,0.176500,0.176500,0.176200,0.176100,0.175900,0.175900,0.175900,0.175900,0.175900,0.175900,0.175900,0.175900,0.175900,0.175900,0.175800,0.175700,0.175500,0.175400,0.175200,0.175000,0.174800,0.174700,0.174600,0.174500,0.174400,0.174400,0.174400,0.174500,0.174500,0.174600,0.174600,0.174600,0.174600,0.174100,0.174000,0.173800,0.173700,0.173700,0.173600,0.173600,0.173600,0.173500,0.173400,0.173400,0.173400,0.173300,0.173300,0.173300,0.173200,0.173200,0.172900,0.172800,0.172600,0.172500,0.172400,0.172400,0.172400,0.172500,0.172500,0.172600,0.172600,0.172500,0.172400,0.172200,0.172200,0.172100,0.172000,0.172000,0.171900,0.171900,0.171900,0.171800,0.171600,0.171500,0.171400,0.171300,0.171200,0.171100,0.171000,0.170900,0.170800,0.170800,0.170700,0.170700,0.170600,0.170600,0.170500,0.170400,0.170300,0.170300,0.170300,0.170300,0.170300,0.170300,0.170200,0.170100,0.170000,0.169900,0.169800,0.169800,0.169700,0.169700,0.169500,0.169400,0.169100,0.169100,0.169100,0.169200,0.169300,0.169300,0.169300,1.000000,1.000000,1.000000,1.000000,0.482100,0.482100,0.482100,0.482000,0.481900,0.479900,0.479900,0.480100,0.483100,0.483100,0.482700,1.000000,0.482400,0.481600,0.481600,0.480300,0.480300,1.000000,1.000000,0.480400,0.480400,0.481400,0.480700,1.000000,1.000000,1.000000,1.000000,0.346700,1.000000,1.000000,1.000000,1.000000,1.000000,1.000000,1.000000,0.475400,0.477200,1.000000,0.477900,0.477600,0.477300,0.477300,0.477400,1.000000,1.000000,1.000000,0.479600,1.000000,0.476900,0.477000,0.477600,0.478000,1.000000,1.000000,1.000000,1.000000,1.000000,1.000000,1.000000,1.000000,1.000000,1.000000,1.000000,0.475200,0.475200,1.000000,0.475200,1.000000,1.000000,0.475400,1.000000
1.000000,1.000000,1.000000,1.000000,1.000000,0.550000,0.550000,0.549500,1.000000,1.000000,1.000000,1.000000,1.000000,0.547600,0.547600,0.547600,0.547600,0.547600,0.547800,0.547800,0.548800,0.548000,0.548900,0.549000,0.549100,0.549100,0.545300,0.544100,0.540600,1.000000,0.180200,0.179100,0.179100,0.179000,0.179000,0.179000,0.179000,0.179000,0.178900,0.178800,0.178700,0.178600,0.178500,0.178500,0.178500,0.178500,0.178400,0.178300,0.178100,0.178000,0.177800,0.177700,0.177400,0.177400,0.177400,0.177400,0.177400,0.177400,0.177400,0.177300,0.177200,0.177100,0.177100,0.177100,0.177000,0.177000,0.176900,0.176800,0.176700,0.176500,0.176500,0.176400,0.176200,0.176100,0.175900,0.175900,0.175800,0.175800,0.175800,0.175800,0.175800,0.175800,0.175900,0.175900,0.175900,0.175800,0.175700,0.175400,0.175200,0.175000,0.174700,0.174600,0.174600,0.174400,0.174400,0.174400,0.174400,0.174400,0.174500,0.174600,0.174700,0.174600,0.174500,0.174200,0.174100,0.173900,0.173900,0.173800,0.173800,0.173700,0.173600,0.173500,0.173400,0.173400,0.173300,0.173300,0.173300,0.173300,0.173300,0.173200,0.173000,0.172900,0.172600,0.172600,0.172500,0.172400,0.172400,0.172500,0.172600,0.172600,0.172600,0.172400,0.172400,0.172200,0.172100,0.172100,0.172000,0.171900,0.171900,0.171900,0.171900,0.171800,0.171700,0.171500,0.171400,0.171300,0.171200,0.171100,0.171000,0.170900,0.170800,0.170800,0.170800,0.170700,0.170700,0.170700,0.170600,0.170500,0.170400,0.170300,0.170300,0.170300,0.170300,0.170300,0.170100,0.170000,0.170000,0.169800,0.169800,0.169800,0.169700,0.169600,0.169400,0.169200,0.169000,0.169000,0.169000,0.169100,0.169200,0.169300,0.169400,1.000000,1.000000,1.000000,0.482100,0.482100,0.482000,0.481800,0.480000,0.480000,0.478100,0.478000,0.477100,0.478000,0.480600,0.480600,1.000000,1.000000,0.477800,0.477100,0.477000,1.000000,1.000000,1.000000,1.000000,0.482600,1.000000,1.000000,1.000000,1.000000,0.346600,1.000000,1.000000,1.000000,1.000000,1.000000,1.000000,1.000000,0.477600,1.000000,0.474800,1.000000,1.000000,0.477300,0.477600,0.477300,0.477200,1.000000,1.000000,1.000000,1.000000,0.479600,0.479600,1.000000,1.000000,0.477600,0.477800,1.000000,1.000000,1.000000,1.000000,1.000000,1.000000,1.000000,1.000000,1.000000,1.000000,1.000000,1.000000,1.000000,1.000000,1.000000,1.000000,1.000000,1.000000,1.000000
1.000000,1.000000,1.000000,1.000000,0.550200,0.550000,0.550000,1.000000,1.000000,1.000000,1.000000,1.000000,1.000000,1.000000,0.547700,0.547500,1.000000,1.000000,0.550500,0.550400,0.548800,0.548900,0.548900,0.549000,0.549100,0.547700,0.545200,0.544100,0.540600,1.000000,1.000000,0.179000,0.179000,0.179000,0.179000,0.179000,0.179000,0.179000,0.178900,0.178700,0.178600,0.178500,0.178500,0.178500,0.178500,0.178600,0.178500,0.178400,0.178200,0.178000,0.177900,0.177800,0.177400,0.177400,0.177400,0.177400,0.177400,0.177300,0.177300,0.177300,0.177200,0.177200,0.177100,0.177100,0.177000,0.177000,0.176900,0.176800,0.176700,0.176500,0.176500,0.176400,0.176200,0.176100,0.175900,0.175900,0.175800,0.175800,0.175800,0.175800,0.175800,0.175800,0.175900,0.175900,0.175900,0.175800,0.175700,0.175400,0.175200,0.175000,0.174700,0.174600,0.174500,0.174400,0.174400,0.174400,0.174400,0.174400,0.174500,0.174600,0.174700,0.174600,0.174400,0.174200,0.174100,0.174000,0.173900,0.173900,0.173800,0.173700,0.173600,0.173500,0.173400,0.173300,0.173300,0.173300,0.173300,0.173300,0.173300,0.173200,0.173100,0.173000,0.172700,0.172600,0.172600,0.172500,0.172500,0.172600,0.172600,0.172600,0.172500,0.172400,0.172300,0.172200,0.172100,0.172100,0.172000,0.171900,0.171900,0.171900,0.171900,0.171800,0.171700,0.171500,0.171400,0.171300,0.171200,0.171100,0.171000,0.170900,0.170800,0.170800,0.170800,0.170800,0.170800,0.170700,0.170600,0.170500,0.170400,0.170300,0.170300,0.170300,0.170300,0.170200,0.170100,0.170000,0.169900,0.169800,0.169800,0.169700,0.169700,0.169600,0.169400,0.169100,0.168900,0.168900,0.169000,0.169000,0.169200,0.169300,0.169400,1.000000,1.000000,1.000000,1.000000,0.482000,0.481400,0.481400,1.000000,1.000000,0.477000,0.476200,0.475500,0.475500,0.475800,0.477900,1.000000,1.000000,1.000000,0.477700,1.000000,1.000000,1.000000,1.000000,0.482600,0.482600,1.000000,1.000000,1.000000,1.000000,1.000000,1.000000,0.346500,1.000000,1.000000,1.000000,1.000000,1.000000,0.477600,0.477700,0.477700,1.000000,1.000000,1.000000,1.000000,0.477300,0.477200,1.000000,1.000000,1.000000,1.000000,1.000000,1.000000,1.000000,1.000000,1.000000,1.000000,1.000000,1.000000,1.000000,1.000000,1.000000,1.000000,1.000000,1.000000,1.000000,1.000000,1.000000,1.000000,1.000000,1.000000,1.000000,1.000000,1.000000,1.000000,1.000000
1.000000,1.000000,1.000000,0.547800,0.551400,0.551500,0.550200,1.000000,1.000000,1.000000,1.000000,1.000000,1.000000,1.000000,0.547800,1.000000,1.000000,1.000000,1.000000,0.550500,0.550500,0.549400,0.549100,1.000000,1.000000,1.000000,0.545300,0.545100,0.542600,1.000000,1.000000,0.179000,0.179000,0.179000,0.179000,0.179000,0.179000,0.178900,0.178800,0.178600,0.178500,0.178300,0.178300,0.178300,0.178400,0.178600,0.178600,0.178500,0.178300,0.178200,0.178100,0.178000,0.177700,0.177500,0.177400,0.177400,0.177300,0.177300,0.177300,0.177200,0.177200,0.177200,0.177100,0.177100,0.177000,0.176900,0.176800,0.176700,0.176600,0.176500,0.176500,0.176400,0.176300,0.176200,0.176100,0.176000,0.175900,0.175900,0.176000,0.176000,0.175900,0.175900,0.175900,0.175900,0.175900,0.175800,0.175700,0.175400,0.175300,0.175000,0.174700,0.174600,0.174500,0.174400,0.174400,0.174400,0.174400,0.174400,0.174400,0.174600,0.174600,0.174600,0.174300,0.174200,0.174100,0.174000,0.174000,0.173900,0.173800,0.173700,0.173500,0.173400,0.173300,0.173200,0.173200,0.173200,0.173200,0.173200,0.173300,0.173300,0.173200,0.173100,0.172900,0.172800,0.172700,0.172600,0.172600,0.172600,0.172600,0.172500,0.172400,0.172400,0.172300,0.172200,0.172100,0.172000,0.171900,0.171900,0.171900,0.171900,0.171900,0.171900,0.171800,0.171600,0.171500,0.171400,0.171200,0.171200,0.171000,0.171000,0.170900,0.170800,0.170800,0.170800,0.170800,0.170700,0.170600,0.170500,0.170400,0.170300,0.170300,0.170300,0.170300,0.170200,0.170000,0.169900,0.169800,0.169700,0.169700,0.169600,0.169600,0.169500,0.169200,0.169100,0.168900,0.168900,0.168900,0.169000,0.169200,0.169300,0.169400,1.000000,1.000000,1.000000,1.000000,1.000000,0.478700,0.478700,1.000000,1.000000,0.475400,0.475400,0.475400,0.475400,0.475500,0.475500,1.000000,0.477900,1.000000,1.000000,1.000000,1.000000,1.000000,1.000000,0.482600,0.482600,1.000000,0.478200,1.000000,1.000000,1.000000,0.346400,0.346400,1.000000,1.000000,1.000000,1.000000,1.000000,1.000000,1.000000,1.000000,1.000000,1.000000,1.000000,1.000000,1.000000,1.000000,1.000000,1.000000,1.000000,1.000000,1.000000,1.000000,1.000000,1.000000,1.000000,1.000000,1.000000,1.000000,1.000000,1.000000,1.000000,1.000000,1.000000,1.000000,1.000000,1.000000,1.000000,1.000000,1.000000,1.000000,1.000000,1.000000,0.472600,0.472700,0.472800
1.000000,1.000000,0.547700,0.547700,0.551100,0.551500,0.551800,1.000000,1.000000,1.000000,1.000000,1.000000,1.000000,1.000000,1.000000,1.000000,1.000000,1.000000,0.550600,0.550500,1.000000,1.000000,1.000000,1.000000,0.549200,1.000000,1.000000,0.545100,1.000000,1.000000,1.000000,0.179000,0.179000,0.179000,0.179000,0.179000,0.178900,0.178900,0.178800,0.178600,0.178400,0.178200,0.178200,0.178200,0.178300,0.178500,0.178600,0.178600,0.178400,0.178300,0.178200,0.178000,0.177800,0.177600,0.177500,0.177400,0.177300,0.177200,0.177200,0.177200,0.177200,0.177200,0.177100,0.177000,0.176800,0.176700,0.176700,0.176600,0.176600,0.176500,0.176500,0.176500,0.176400,0.176300,0.176200,0.176100,0.176100,0.176100,0.176100,0.176100,0.176000,0.175900,0.175800,0.175800,0.175800,0.175800,0.175700,0.175400,0.175300,0.175100,0.174800,0.174700,0.174600,0.174400,0.174400,0.174400,0.174300,0.174300,0.174400,0.174500,0.174600,0.174500,0.174400,0.174200,0.174100,0.174000,0.173900,0.173900,0.173700,0.173600,0.173400,0.173400,0.173200,0.173200,0.173200,0.173200,0.173200,0.173200,0.173200,0.173200,0.173200,0.173100,0.173000,0.172900,0.172800,0.172700,0.172600,0.172600,0.172400,0.172400,0.172300,0.172300,0.172200,0.172100,0.172100,0.172000,0.171800,0.171800,0.171800,0.171800,0.171900,0.171900,0.171800,0.171600,0.171500,0.171400,0.171200,0.171200,0.171100,0.171100,0.171000,0.170800,0.170800,0.170800,0.170800,0.170800,0.170600,0.170500,0.170400,0.170300,0.170300,0.170300,0.170300,0.170200,0.170000,0.169800,0.169800,0.169700,0.169700,0.169600,0.169500,0.169400,0.169200,0.169000,0.168900,0.168900,0.168900,0.169000,0.169200,0.169300,1.000000,1.000000,1.000000,1.000000,1.000000,1.000000,0.477300,0.477300,1.000000,1.000000,1.000000,1.000000,0.475400,1.000000,0.475400,0.475400,1.000000,1.000000,1.000000,1.000000,1.000000,1.000000,1.000000,1.000000,1.000000,0.478100,1.000000,1.000000,1.000000,1.000000,0.346500,0.344800,0.346400,1.000000,1.000000,1.000000,1.000000,1.000000,1.000000,1.000000,1.000000,1.000000,1.000000,1.000000,1.000000,1.000000,1.000000,1.000000,1.000000,1.000000,1.000000,1.000000,1.000000,1.000000,1.000000,1.000000,1.000000,1.000000,1.000000,1.000000,1.000000,1.000000,1.000000,1.000000,1.000000,1.000000,1.000000,1.000000,0.477900,0.478100,1.000000,1.000000,1.000000,0.472600,0.472700,0.472800
1.000000,1.000000,1.000000,0.547600,0.548800,0.550900,0.550800,1.000000,1.000000,1.000000,1.000000,1.000000,1.000000,1.000000,1.000000,1.000000,1.000000,1.000000,1.000000,0.550500,1.000000,1.000000,1.000000,1.000000,0.549900,1.000000,1.000000,1.000000,1.000000,1.000000,1.000000,0.179000,0.179000,0.179000,0.178900,0.178900,0.178900,0.178900,0.178800,0.178600,0.178500,0.178200,0.178200,0.178100,0.178200,0.178300,0.178400,0.178500,0.178400,0.178300,0.178200,0.178000,0.177900,0.177700,0.177600,0.177400,0.177400,0.177200,0.177200,0.177200,0.177200,0.177100,0.177000,0.176900,0.176700,0.176700,0.176600,0.176600,0.176600,0.176500,0.176500,0.176500,0.176500,0.176400,0.176300,0.176200,0.176200,0.176300,0.176300,0.176200,0.176100,0.175900,0.175700,0.175700,0.175600,0.175500,0.175500,0.175300,0.175200,0.175100,0.174900,0.174800,0.174700,0.174500,0.174500,0.174400,0.174300,0.174300,0.174300,0.174400,0.174400,0.174400,0.174400,0.174200,0.174100,0.173900,0.173800,0.173700,0.173600,0.173500,0.173300,0.173300,0.173200,0.173100,0.173100,0.173100,0.173200,0.173200,0.173200,0.173200,0.173100,0.173100,0.172900,0.172900,0.172800,0.172700,0.172600,0.172500,0.172400,0.172300,0.172300,0.172200,0.172200,0.172100,0.172100,0.172000,0.171800,0.171800,0.171700,0.171800,0.171800,0.171800,0.171800,0.171600,0.171400,0.171300,0.171200,0.171200,0.171200,0.171200,0.171100,0.170800,0.170700,0.170700,0.170700,0.170700,0.170600,0.170500,0.170400,0.170300,0.170300,0.170300,0.170300,0.170200,0.169900,0.169800,0.169700,0.169600,0.169600,0.169500,0.169400,0.169300,0.169100,0.169000,0.168900,0.168900,0.168900,0.169000,0.169200,0.169300,0.169400,1.000000,1.000000,1.000000,1.000000,1.000000,0.476400,0.476400,0.476400,1.000000,0.476400,0.476400,0.476400,0.476400,0.475200,0.475100,1.000000,1.000000,1.000000,1.000000,1.000000,1.000000,1.000000,1.000000,1.000000,0.478100,1.000000,1.000000,1.000000,1.000000,0.344800,0.344800,1.000000,1.000000,1.000000,1.000000,1.000000,1.000000,1.000000,1.000000,1.000000,1.000000,1.000000,1.000000,1.000000,1.000000,1.000000,1.000000,1.000000,1.000000,1.000000,1.000000,1.000000,1.000000,1.000000,1.000000,1.000000,1.000000,1.000000,1.000000,1.000000,1.000000,1.000000,1.000000,1.000000,1.000000,0.473000,1.000000,0.477900,1.000000,0.478300,0.478300,1.000000,0.472700,0.472700,0.472800
1.000000,1.000000,1.000000,1.000000,1.000000,1.000000,1.000000,1.000000,1.000000,1.000000,1.000000,1.000000,1.000000,1.000000,1.000000,1.000000,1.000000,1.000000,1.000000,1.000000,1.000000,1.000000,1.000000,0.549800,0.549800,1.000000,1.000000,1.000000,1.000000,1.000000,1.000000,0.179000,0.179000,0.178900,0.178900,0.178900,0.178900,0.178800,0.178800,0.178700,0.178600,0.178200,0.178200,0.178100,0.178100,0.178200,0.178300,0.178300,0.178200,0.178200,0.178100,0.178000,0.177800,0.177700,0.177600,0.177500,0.177400,0.177300,0.177200,0.177200,0.177100,0.177100,0.176900,0.176900,0.176700,0.176600,0.176600,0.176500,0.176500,0.176500,0.176500,0.176500,0.176400,0.176400,0.176200,0.176200,0.176200,0.176300,0.176300,0.176100,0.175900,0.175800,0.175600,0.175600,0.175500,0.175400,0.175400,0.175200,0.175100,0.175000,0.174900,0.174900,0.174700,0.174700,0.174600,0.174500,0.174400,0.174300,0.174200,0.174300,0.174300,0.174400,0.174300,0.174200,0.174100,0.173900,0.173800,0.173700,0.173500,0.173400,0.173300,0.173300,0.173200,0.173100,0.173100,0.173100,0.173100,0.173100,0.173100,0.173100,0.173000,0.172900,0.172800,0.172800,0.172700,0.172600,0.172600,0.172400,0.172400,0.172300,0.172200,0.172200,0.172200,0.172100,0.172000,0.171900,0.171700,0.171600,0.171600,0.171600,0.171600,0.171600,0.171600,0.171300,0.171200,0.171200,0.171200,0.171200,0.171300,0.171200,0.171200,0.170800,0.170700,0.170600,0.170700,0.170700,0.170600,0.170500,0.170400,0.170300,0.170300,0.170300,0.170300,0.170200,0.170100,0.169700,0.169700,0.169500,0.169500,0.169400,0.169300,0.169200,0.169000,0.169000,0.168900,0.168900,0.169000,0.169000,0.169200,0.169300,0.169500,1.000000,1.000000,1.000000,1.000000,1.000000,1.000000,1.000000,1.000000,1.000000,0.476300,0.476300,0.476400,0.476400,0.475000,1.000000,1.000000,1.000000,1.000000,1.000000,1.000000,1.000000,1.000000,1.000000,1.000000,1.000000,1.000000,1.000000,1.000000,1.000000,1.000000,1.000000,0.344800,1.000000,1.000000,1.000000,1.000000,1.000000,1.000000,1.000000,1.000000,1.000000,1.000000,1.000000,1.000000,1.000000,1.000000,1.000000,1.000000,1.000000,1.000000,1.000000,1.000000,1.000000,1.000000,1.000000,1.000000,1.000000,1.000000,1.000000,1.000000,1.000000,1.000000,1.000000,1.000000,1.000000,1.000000,1.000000,1.000000,1.000000,1.000000,1.000000,1.000000,1.000000,1.000000,1.000000
1.000000,1.000000,1.000000,1.000000,1.000000,1.000000,1.000000,1.000000,1.000000,1.000000,1.000000,1.000000,1.000000,1.000000,1.000000,1.000000,1.000000,1.000000,1.000000,1.000000,1.000000,0.549000,0.549000,0.549800,1.000000,1.000000,1.000000,1.000000,1.000000,1.000000,0.179700,0.179000,0.178900,0.178900,0.178800,0.178800,0.178800,0.178800,0.178800,0.178700,0.178600,0.178300,0.178200,0.178100,0.178100,0.178200,0.178200,0.178200,0.178200,0.178000,0.177600,0.177600,0.177800,0.177700,0.177600,0.177500,0.177400,0.177300,0.177200,0.177200,0.177100,0.177000,0.176900,0.176900,0.176700,0.176700,0.176600,0.176500,0.176500,0.176400,0.176400,0.176400,0.176400,0.176300,0.175900,0.175900,0.176200,0.176200,0.176200,0.176100,0.175900,0.175800,0.175600,0.175500,0.175400,0.175400,0.175300,0.175100,0.175000,0.174900,0.174900,0.174800,0.174700,0.174700,0.174700,0.174600,0.174600,0.174300,0.174200,0.174200,0.174200,0.174300,0.174300,0.174200,0.174100,0.173900,0.173800,0.173600,0.173500,0.173400,0.173300,0.173200,0.173200,0.173200,0.173100,0.173100,0.173100,0.173100,0.173100,0.173100,0.173000,0.172900,0.172800,0.172700,0.172600,0.172500,0.172500,0.172400,0.172400,0.172300,0.172200,0.172200,0.172100,0.172000,0.171900,0.171900,0.171700,0.171600,0.171600,0.171600,0.171600,0.171500,0.171500,0.171200,0.171200,0.171200,0.171200,0.171200,0.171300,0.171200,0.171100,0.170700,0.170700,0.170600,0.170600,0.170600,0.170600,0.170500,0.170400,0.170300,0.170300,0.170300,0.170300,0.170300,0.170200,0.169700,0.169600,0.169500,0.169500,0.169400,0.169300,0.169200,0.169000,0.169000,0.168900,0.168900,0.169000,0.169000,0.169300,0.169400,0.169500,1.000000,1.000000,1.000000,1.000000,1.000000,1.000000,1.000000,1.000000,0.476300,0.476300,0.476300,0.476300,0.476400,1.000000,1.000000,1.000000,1.000000,1.000000,1.000000,1.000000,1.000000,1.000000,1.000000,1.000000,1.000000,1.000000,1.000000,1.000000,1.000000,1.000000,1.000000,1.000000,1.000000,1.000000,1.000000,1.000000,1.000000,1.000000,1.000000,1.000000,1.000000,1.000000,1.000000,1.000000,1.000000,1.000000,1.000000,1.000000,1.000000,1.000000,1.000000,1.000000,1.000000,1.000000,1.000000,1.000000,1.000000,1.000000,1.000000,1.000000,1.000000,1.000000,1.000000,1.000000,1.000000,1.000000,1.000000,1.000000,1.000000,1.000000,1.000000,1.000000,1.000000,1.000000,1.000000
1.000000,1.000000,1.000000,1.000000,1.000000,1.000000,1.000000,1.000000,1.000000,1.000000,1.000000,1.000000,1.000000,1.000000,1.000000,1.000000,1.000000,1.000000,1.000000,1.000000,1.000000,1.000000,1.000000,1.000000,1.000000,1.000000,1.000000,1.000000,1.000000,1.000000,0.179000,0.178800,0.178700,0.178700,0.178700,0.178700,0.178700,0.178800,0.178800,0.178700,0.178600,0.178300,0.178200,0.178100,0.178100,0.178200,0.178200,0.178200,0.177900,0.177600,0.177600,0.177500,0.177600,0.177700,0.177600,0.177500,0.177500,0.177300,0.177300,0.177200,0.177000,0.177000,0.176900,0.176900,0.176900,0.176800,0.176800,0.176600,0.176500,0.176400,0.176400,0.176300,0.176300,0.175700,0.175600,0.175600,0.176100,0.176200,0.176200,0.176000,0.175900,0.175800,0.175600,0.175500,0.175400,0.175300,0.175200,0.175000,0.174900,0.174700,0.174700,0.174700,0.174600,0.174600,0.174600,0.174600,0.174600,0.174500,0.174200,0.174100,0.174100,0.174100,0.174100,0.174100,0.174000,0.173900,0.173800,0.173600,0.173500,0.173400,0.173300,0.173300,0.173200,0.173200,0.173200,0.173100,0.173100,0.173100,0.173100,0.173000,0.172900,0.172800,0.172700,0.172600,0.172600,0.172500,0.172400,0.172400,0.172300,0.172300,0.172200,0.172100,0.172100,0.172000,0.171900,0.171800,0.171600,0.171600,0.171600,0.171500,0.171500,0.171500,0.171400,0.171200,0.171200,0.171100,0.171200,0.171200,0.171200,0.171200,0.171000,0.170700,0.170600,0.170600,0.170600,0.170600,0.170500,0.170400,0.170300,0.170300,0.170300,0.170300,0.170300,0.170300,0.170200,0.169700,0.169600,0.169500,0.169400,0.169300,0.169200,0.169200,0.169000,0.169000,0.168900,0.168900,0.169000,0.169000,0.169300,0.169400,0.169500,1.000000,0.362600,1.000000,1.000000,1.000000,1.000000,1.000000,1.000000,1.000000,1.000000,1.000000,1.000000,1.000000,1.000000,1.000000,1.000000,1.000000,1.000000,1.000000,1.000000,1.000000,1.000000,1.000000,1.000000,1.000000,1.000000,1.000000,1.000000,1.000000,1.000000,1.000000,1.000000,1.000000,1.000000,1.000000,1.000000,1.000000,1.000000,1.000000,1.000000,1.000000,1.000000,1.000000,1.000000,1.000000,1.000000,1.000000,1.000000,1.000000,1.000000,1.000000,1.000000,1.000000,1.000000,1.000000,1.000000,1.000000,1.000000,1.000000,1.000000,1.000000,1.000000,1.000000,1.000000,1.000000,1.000000,1.000000,1.000000,1.000000,1.000000,1.000000,1.000000,1.000000,1.000000,1.000000
1.000000,1.000000,1.000000,1.000000,1.000000,1.000000,1.000000,1.000000,1.000000,1.000000,1.000000,1.000000,1.000000,1.000000,1.000000,1.000000,1.000000,1.000000,1.000000,1.000000,1.000000,1.000000,1.000000,1.000000,1.000000,1.000000,1.000000,1.000000,1.000000,1.000000,0.178800,0.178700,0.178600,0.178600,0.178600,0.178700,0.178700,0.178700,0.178700,0.178700,0.178600,0.178300,0.178200,0.178200,0.178100,0.178200,0.178100,0.178000,0.177700,0.177600,0.177500,0.177500,0.177600,0.177600,0.177600,0.177500,0.177500,0.177300,0.177200,0.177100,0.176900,0.176900,0.176900,0.176900,0.176900,0.176900,0.176900,0.176600,0.176500,0.176300,0.176200,0.176100,0.175700,0.175600,0.175600,0.175600,0.175700,0.175900,0.176100,0.176000,0.175900,0.175900,0.175600,0.175500,0.175400,0.175300,0.175200,0.175000,0.174800,0.174700,0.174600,0.174600,0.174500,0.174500,0.174500,0.174600,0.174500,0.174400,0.174200,0.174200,0.174100,0.174100,0.174000,0.174000,0.174000,0.173900,0.173800,0.173700,0.173600,0.173500,0.173400,0.173300,0.173200,0.173200,0.173200,0.173200,0.173200,0.173100,0.173000,0.173000,0.172800,0.172700,0.172600,0.172500,0.172500,0.172400,0.172400,0.172300,0.172300,0.172300,0.172200,0.172100,0.172000,0.171800,0.171800,0.171700,0.171600,0.171600,0.171600,0.171500,0.171500,0.171400,0.171300,0.171200,0.171200,0.171100,0.171100,0.171200,0.171100,0.171100,0.171000,0.170700,0.170600,0.170600,0.170600,0.170500,0.170500,0.170400,0.170300,0.170300,0.170300,0.170300,0.170300,0.170300,0.170200,0.169800,0.169600,0.169500,0.169300,0.169300,0.169200,0.169100,0.169000,0.169000,0.168900,0.168900,0.168900,0.169000,0.169300,0.169400,0.169500,1.000000,0.360700,0.361000,0.360500,1.000000,1.000000,1.000000,1.000000,1.000000,1.000000,0.350800,0.350700,1.000000,0.349000,0.348400,0.346900,0.346900,0.346900,0.346900,1.000000,1.000000,1.000000,1.000000,1.000000,1.000000,1.000000,1.000000,1.000000,1.000000,1.000000,1.000000,1.000000,1.000000,1.000000,1.000000,1.000000,1.000000,1.000000,1.000000,1.000000,1.000000,1.000000,1.000000,1.000000,1.000000,1.000000,1.000000,1.000000,1.000000,1.000000,1.000000,1.000000,1.000000,1.000000,1.000000,1.000000,1.000000,1.000000,1.000000,1.000000,1.000000,1.000000,1.000000,1.000000,1.000000,1.000000,1.000000,1.000000,1.000000,1.000000,1.000000,1.000000,1.000000,1.000000,1.000000
1.000000,1.000000,1.000000,1.000000,1.000000,1.000000,1.000000,1.000000,1.000000,1.000000,1.000000,1.000000,1.000000,1.000000,1.000000,1.000000,1.000000,1.000000,1.000000,1.000000,1.000000,1.000000,1.000000,1.000000,1.000000,1.000000,1.000000,1.000000,1.000000,1.000000,0.178800,0.178600,0.178600,0.178600,0.178600,0.178700,0.178700,0.178700,0.178700,0.178600,0.178400,0.178200,0.178100,0.178100,0.178100,0.178100,0.178100,0.178000,0.177700,0.177600,0.177600,0.177500,0.177600,0.177600,0.177600,0.177500,0.177400,0.177200,0.177200,0.177100,0.176900,0.176900,0.176800,0.176900,0.177000,0.177000,0.177000,0.176700,0.176500,0.176300,0.176200,0.176100,0.175800,0.175700,0.175600,0.175600,0.175800,0.175900,0.176000,0.176000,0.176000,0.175900,0.175700,0.175600,0.175400,0.175300,0.175200,0.175000,0.174800,0.174600,0.174600,0.174500,0.174400,0.174400,0.174400,0.174400,0.174400,0.174300,0.174200,0.174200,0.174100,0.174000,0.174000,0.173900,0.173900,0.173900,0.173800,0.173800,0.173600,0.173600,0.173400,0.173300,0.173300,0.173200,0.173300,0.173200,0.173200,0.173100,0.173000,0.172900,0.172700,0.172600,0.172500,0.172400,0.172400,0.172400,0.172300,0.172300,0.172300,0.172300,0.172200,0.172100,0.171900,0.171800,0.171700,0.171600,0.171600,0.171600,0.171600,0.171600,0.171500,0.171400,0.171300,0.171200,0.171200,0.171100,0.171100,0.171100,0.171100,0.171000,0.170900,0.170700,0.170600,0.170500,0.170500,0.170400,0.170400,0.170300,0.170300,0.170300,0.170300,0.170300,0.170300,0.170200,0.170200,0.169800,0.169600,0.169500,0.169300,0.169300,0.169200,0.169100,0.169000,0.169000,0.168900,0.168900,0.168900,0.169000,0.169100,0.169200,0.169500,1.000000,0.358700,0.358700,0.357700,1.000000,1.000000,1.000000,1.000000,1.000000,0.352500,0.350700,0.350600,0.350400,0.348600,1.000000,0.348300,0.347400,0.347000,0.346900,1.000000,1.000000,1.000000,1.000000,1.000000,1.000000,1.000000,1.000000,1.000000,1.000000,1.000000,1.000000,1.000000,1.000000,1.000000,1.000000,1.000000,1.000000,1.000000,1.000000,1.000000,1.000000,1.000000,1.000000,1.000000,1.000000,1.000000,1.000000,1.000000,1.000000,1.000000,1.000000,1.000000,1.000000,1.000000,1.000000,1.000000,1.000000,1.000000,1.000000,1.000000,1.000000,1.000000,1.000000,1.000000,1.000000,1.000000,1.000000,1.000000,1.000000,1.000000,1.000000,1.000000,1.000000,1.000000,1.000000
1.000000,1.000000,1.000000,1.000000,1.000000,1.000000,1.000000,1.000000,1.000000,1.000000,1.000000,1.000000,1.000000,1.000000,1.000000,1.000000,1.000000,1.000000,1.000000,1.000000,1.000000,1.000000,1.000000,1.000000,1.000000,1.000000,1.000000,1.000000,1.000000,1.000000,0.179600,0.178700,0.178600,0.178600,0.178600,0.178700,0.178700,0.178700,0.178700,0.178500,0.178400,0.178200,0.178100,0.178000,0.178000,0.178100,0.178100,0.178000,0.177800,0.177700,0.177600,0.177600,0.177600,0.177600,0.177600,0.177500,0.177400,0.177100,0.177000,0.176900,0.176800,0.176800,0.176800,0.176800,0.176900,0.176900,0.176900,0.176700,0.176600,0.176400,0.176300,0.176200,0.175900,0.175800,0.175700,0.175700,0.175800,0.175900,0.176000,0.176000,0.176000,0.175900,0.175700,0.175600,0.175300,0.175200,0.175200,0.175000,0.174800,0.174600,0.174600,0.174500,0.174400,0.174400,0.174300,0.174300,0.174300,0.174300,0.174200,0.174200,0.174100,0.174000,0.174000,0.173900,0.173900,0.173900,0.173900,0.173900,0.173800,0.173800,0.173500,0.173400,0.173300,0.173300,0.173300,0.173200,0.173200,0.173000,0.172900,0.172800,0.172600,0.172600,0.172400,0.172400,0.172400,0.172300,0.172300,0.172300,0.172300,0.172300,0.172200,0.172100,0.171900,0.171800,0.171700,0.171600,0.171600,0.171600,0.171600,0.171600,0.171600,0.171400,0.171300,0.171200,0.171200,0.171100,0.171100,0.171000,0.171000,0.170900,0.170800,0.170700,0.170600,0.170500,0.170400,0.170400,0.170300,0.170300,0.170300,0.170300,0.170300,0.170300,0.170300,0.170200,0.170100,0.169900,0.169700,0.169600,0.169400,0.169300,0.169200,0.169100,0.169100,0.169000,0.169000,0.169000,0.169000,0.169000,0.169000,0.169100,1.000000,1.000000,0.358700,0.358700,0.357900,1.000000,1.000000,1.000000,1.000000,1.000000,0.350800,0.350600,0.350300,0.348800,0.348400,0.348300,0.348200,0.348200,0.348100,1.000000,1.000000,1.000000,1.000000,1.000000,1.000000,1.000000,1.000000,1.000000,1.000000,1.000000,1.000000,1.000000,1.000000,1.000000,1.000000,1.000000,1.000000,1.000000,1.000000,1.000000,1.000000,1.000000,1.000000,1.000000,1.000000,1.000000,1.000000,1.000000,1.000000,1.000000,1.000000,1.000000,1.000000,1.000000,1.000000,1.000000,1.000000,1.000000,1.000000,1.000000,1.000000,1.000000,1.000000,1.000000,1.000000,1.000000,1.000000,1.000000,1.000000,1.000000,1.000000,1.000000,1.000000,1.000000,1.000000,1.000000
1.000000,1.000000,1.000000,1.000000,1.000000,1.000000,1.000000,1.000000,1.000000,1.000000,1.000000,1.000000,1.000000,1.000000,1.000000,1.000000,1.000000,1.000000,1.000000,1.000000,1.000000,1.000000,1.000000,1.000000,1.000000,1.000000,1.000000,1.000000,1.000000,1.000000,0.179800,0.179000,0.178700,0.178700,0.178600,0.178700,0.178700,0.178700,0.178600,0.178500,0.178300,0.178100,0.178000,0.178000,0.178000,0.178100,0.178100,0.178000,0.177900,0.177800,0.177700,0.177600,0.177600,0.177600,0.177600,0.177400,0.177300,0.177000,0.176900,0.176900,0.176800,0.176800,0.176800,0.176800,0.176800,0.176800,0.176800,0.176700,0.176600,0.176500,0.176400,0.176300,0.176100,0.176000,0.175900,0.175900,0.175900,0.175900,0.176000,0.176000,0.176000,0.175900,0.175700,0.175500,0.175200,0.175200,0.175100,0.174900,0.174700,0.174600,0.174600,0.174500,0.174400,0.174400,0.174300,0.174300,0.174200,0.174200,0.174200,0.174200,0.174100,0.174100,0.174000,0.173900,0.173900,0.173900,0.173900,0.173900,0.173900,0.173800,0.173600,0.173500,0.173400,0.173300,0.173300,0.173300,0.173200,0.173000,0.172900,0.172800,0.172600,0.172500,0.172400,0.172400,0.172400,0.172300,0.172300,0.172300,0.172300,0.172300,0.172200,0.172100,0.171800,0.171700,0.171600,0.171600,0.171600,0.171600,0.171600,0.171600,0.171500,0.171400,0.171400,0.171200,0.171200,0.171100,0.171000,0.171000,0.170900,0.170900,0.170800,0.170700,0.170600,0.170500,0.170400,0.170400,0.170300,0.170300,0.170300,0.170300,0.170300,0.170300,0.170300,0.170200,0.170100,0.169800,0.169800,0.169600,0.169400,0.169300,0.169200,0.169200,0.169100,0.169100,0.169000,0.169000,0.169000,0.169000,0.169000,0.169000,1.000000,1.000000,1.000000,0.356400,0.358600,1.000000,1.000000,1.000000,1.000000,1.000000,0.350800,0.350300,0.348800,0.347700,0.346200,0.346100,0.348200,0.348200,0.348200,1.000000,1.000000,1.000000,1.000000,1.000000,1.000000,1.000000,1.000000,1.000000,1.000000,1.000000,1.000000,1.000000,1.000000,1.000000,1.000000,1.000000,1.000000,1.000000,1.000000,1.000000,1.000000,1.000000,1.000000,1.000000,1.000000,1.000000,1.000000,1.000000,1.000000,1.000000,1.000000,1.000000,1.000000,1.000000,1.000000,1.000000,1.000000,1.000000,1.000000,1.000000,1.000000,1.000000,1.000000,1.000000,1.000000,1.000000,1.000000,1.000000,1.000000,1.000000,1.000000,1.000000,1.000000,1.000000,1.000000,1.000000
1.000000,1.000000,1.000000,1.000000,1.000000,1.000000,1.000000,1.000000,1.000000,1.000000,1.000000,1.000000,1.000000,1.000000,1.000000,1.000000,1.000000,1.000000,1.000000,1.000000,1.000000,1.000000,1.000000,1.000000,1.000000,1.000000,1.000000,1.000000,1.000000,0.179900,0.179800,0.179300,0.178800,0.178700,0.178700,0.178700,0.178600,0.178600,0.178600,0.178400,0.178300,0.178100,0.178000,0.178000,0.177900,0.178000,0.178000,0.178100,0.178000,0.177900,0.177800,0.177700,0.177700,0.177600,0.177600,0.177500,0.177200,0.176900,0.176900,0.176800,0.176800,0.176800,0.176700,0.176700,0.176700,0.176700,0.176700,0.176700,0.176600,0.176600,0.176500,0.176400,0.176200,0.176200,0.176000,0.176000,0.176000,0.176000,0.176000,0.175900,0.175800,0.175800,0.175500,0.175200,0.175100,0.175000,0.174900,0.174700,0.174600,0.174600,0.174600,0.174500,0.174500,0.174400,0.174300,0.174300,0.174200,0.174200,0.174200,0.174200,0.174100,0.174100,0.174000,0.173900,0.173900,0.173900,0.173900,0.173900,0.173900,0.173800,0.173600,0.173500,0.173400,0.173400,0.173400,0.173300,0.173200,0.173100,0.172900,0.172800,0.172600,0.172600,0.172400,0.172400,0.172400,0.172300,0.172300,0.172300,0.172300,0.172300,0.172200,0.172100,0.171800,0.171700,0.171600,0.171600,0.171600,0.171600,0.171600,0.171600,0.171500,0.171400,0.171400,0.171200,0.171200,0.171100,0.171000,0.170900,0.170800,0.170800,0.170800,0.170700,0.170600,0.170400,0.170400,0.170300,0.170200,0.170200,0.170200,0.170200,0.170200,0.170200,0.170200,0.170000,0.169900,0.169800,0.169700,0.169600,0.169500,0.169400,0.169200,0.169200,0.169100,0.169100,0.169100,0.169100,0.169000,0.169000,0.169000,0.169000,1.000000,1.000000,1.000000,1.000000,1.000000,1.000000,1.000000,1.000000,1.000000,1.000000,1.000000,0.350200,0.347500,0.346300,0.345400,0.345500,0.345900,1.000000,1.000000,1.000000,1.000000,1.000000,1.000000,1.000000,1.000000,1.000000,1.000000,1.000000,1.000000,1.000000,1.000000,1.000000,1.000000,1.000000,1.000000,1.000000,1.000000,1.000000,1.000000,1.000000,1.000000,1.000000,1.000000,1.000000,1.000000,1.000000,1.000000,1.000000,1.000000,1.000000,1.000000,1.000000,1.000000,1.000000,1.000000,1.000000,1.000000,1.000000,1.000000,1.000000,1.000000,1.000000,1.000000,1.000000,1.000000,1.000000,1.000000,1.000000,1.000000,1.000000,1.000000,1.000000,1.000000,1.000000,1.000000,1.000000
1.000000,1.000000,1.000000,1.000000,1.000000,1.000000,1.000000,1.000000,1.000000,1.000000,1.000000,1.000000,1.000000,1.000000,1.000000,1.000000,1.000000,1.000000,1.000000,1.000000,1.000000,1.000000,1.000000,1.000000,1.000000,1.000000,1.000000,1.000000,1.000000,0.179900,0.179800,0.179100,0.178900,0.178800,0.178700,0.178600,0.178600,0.178600,0.178500,0.178400,0.178300,0.178100,0.178000,0.177900,0.177900,0.177900,0.178000,0.178000,0.177900,0.177900,0.177800,0.177800,0.177700,0.177600,0.177600,0.177400,0.177000,0.176900,0.176900,0.176800,0.176800,0.176800,0.176700,0.176600,0.176500,0.176500,0.176500,0.176500,0.176600,0.176500,0.176500,0.176400,0.176200,0.176100,0.176000,0.175900,0.175900,0.175800,0.175800,0.175700,0.175700,0.175700,0.175400,0.175200,0.175000,0.174900,0.174800,0.174700,0.174600,0.174600,0.174600,0.174600,0.174500,0.174400,0.174300,0.174300,0.174200,0.174200,0.174200,0.174200,0.174200,0.174100,0.174100,0.174000,0.173900,0.173900,0.173900,0.173900,0.173900,0.173800,0.173700,0.173600,0.173500,0.173400,0.173400,0.173300,0.173300,0.173100,0.173000,0.172900,0.172600,0.172600,0.172500,0.172400,0.172400,0.172400,0.172400,0.172300,0.172300,0.172300,0.172200,0.172100,0.171800,0.171700,0.171600,0.171600,0.171600,0.171600,0.171600,0.171500,0.171400,0.171400,0.171400,0.171300,0.171200,0.171100,0.170800,0.170800,0.170700,0.170700,0.170700,0.170600,0.170600,0.170400,0.170300,0.170300,0.170200,0.170200,0.170100,0.170100,0.170100,0.170100,0.170000,0.169700,0.169700,0.169700,0.169600,0.169600,0.169400,0.169300,0.169200,0.169100,0.169100,0.169100,0.169100,0.169200,0.169100,0.169000,0.169000,0.169000,0.170000,1.000000,1.000000,1.000000,1.000000,1.000000,1.000000,1.000000,1.000000,1.000000,1.000000,1.000000,0.347500,0.345400,0.345000,0.341000,0.345000,1.000000,1.000000,1.000000,1.000000,1.000000,1.000000,1.000000,1.000000,1.000000,1.000000,1.000000,1.000000,1.000000,1.000000,1.000000,1.000000,1.000000,1.000000,1.000000,1.000000,1.000000,1.000000,1.000000,1.000000,1.000000,1.000000,1.000000,1.000000,1.000000,1.000000,1.000000,1.000000,1.000000,1.000000,1.000000,1.000000,1.000000,1.000000,1.000000,1.000000,1.000000,1.000000,1.000000,1.000000,1.000000,1.000000,1.000000,1.000000,1.000000,1.000000,1.000000,1.000000,1.000000,1.000000,1.000000,1.000000,1.000000,1.000000,1.000000
1.000000,1.000000,1.000000,1.000000,1.000000,1.000000,1.000000,1.000000,1.000000,1.000000,1.000000,1.000000,1.000000,1.000000,1.000000,1.000000,1.000000,1.000000,1.000000,1.000000,1.000000,1.000000,1.000000,1.000000,1.000000,1.000000,1.000000,1.000000,1.000000,0.179100,0.179100,0.179000,0.178900,0.178800,0.178700,0.178600,0.178500,0.178500,0.178500,0.178400,0.178300,0.178100,0.178000,0.177900,0.177800,0.177800,0.177900,0.177900,0.177900,0.177800,0.177800,0.177700,0.177700,0.177600,0.177500,0.177400,0.177000,0.176900,0.176900,0.176900,0.177000,0.176900,0.176700,0.176600,0.176500,0.176400,0.176400,0.176500,0.176500,0.176500,0.176400,0.176400,0.176200,0.176100,0.176000,0.175900,0.175900,0.175800,0.175700,0.175600,0.175500,0.175400,0.175200,0.175100,0.174900,0.174800,0.174800,0.174600,0.174600,0.174600,0.174600,0.174600,0.174500,0.174400,0.174300,0.174200,0.174100,0.174100,0.174100,0.174100,0.174100,0.174100,0.174000,0.173900,0.173900,0.173800,0.173800,0.173800,0.173800,0.173800,0.173700,0.173600,0.173600,0.173500,0.173500,0.173400,0.173300,0.173100,0.173000,0.172900,0.172800,0.172700,0.172500,0.172500,0.172400,0.172400,0.172400,0.172300,0.172300,0.172300,0.172200,0.172100,0.171800,0.171700,0.171600,0.171600,0.171600,0.171600,0.171500,0.171500,0.171400,0.171400,0.171400,0.171300,0.171200,0.171000,0.170800,0.170700,0.170600,0.170600,0.170600,0.170600,0.170500,0.170400,0.170300,0.170300,0.170200,0.170100,0.170000,0.170000,0.169800,0.169700,0.169500,0.169300,0.169300,0.169300,0.169300,0.169400,0.169300,0.169200,0.169100,0.169100,0.169000,0.169100,0.169100,0.169100,0.169100,0.169100,0.169000,0.169000,0.169000,1.000000,1.000000,1.000000,1.000000,1.000000,1.000000,1.000000,1.000000,1.000000,1.000000,1.000000,1.000000,1.000000,0.341000,1.000000,0.341000,1.000000,1.000000,1.000000,1.000000,1.000000,1.000000,1.000000,1.000000,1.000000,1.000000,1.000000,1.000000,1.000000,1.000000,1.000000,1.000000,1.000000,1.000000,1.000000,1.000000,1.000000,1.000000,1.000000,1.000000,1.000000,1.000000,1.000000,1.000000,1.000000,1.000000,1.000000,1.000000,1.000000,1.000000,1.000000,1.000000,1.000000,1.000000,1.000000,1.000000,1.000000,1.000000,1.000000,1.000000,1.000000,1.000000,1.000000,1.000000,1.000000,1.000000,1.000000,1.000000,1.000000,1.000000,1.000000,1.000000,1.000000,1.000000,1.000000
1.000000,1.000000,1.000000,1.000000,1.000000,1.000000,1.000000,1.000000,1.000000,1.000000,1.000000,1.000000,1.000000,1.000000,1.000000,1.000000,1.000000,1.000000,1.000000,1.000000,1.000000,1.000000,1.000000,1.000000,1.000000,1.000000,1.000000,1.000000,1.000000,0.179000,0.179000,0.178900,0.178900,0.178800,0.178600,0.178600,0.178500,0.178400,0.178400,0.178400,0.178300,0.178100,0.178000,0.177900,0.177700,0.177600,0.177500,0.177500,0.177500,0.177600,0.177700,0.177700,0.177600,0.177500,0.177400,0.177300,0.177100,0.177000,0.177000,0.177000,0.177000,0.177000,0.176700,0.176500,0.176400,0.176400,0.176400,0.176400,0.176500,0.176400,0.176400,0.176300,0.176100,0.176100,0.176000,0.175900,0.175900,0.175700,0.175700,0.175500,0.175400,0.175300,0.175200,0.175100,0.174900,0.174800,0.174800,0.174700,0.174600,0.174600,0.174600,0.174600,0.174500,0.174400,0.174300,0.174200,0.174100,0.174100,0.174100,0.174100,0.174100,0.174000,0.174000,0.173900,0.173900,0.173800,0.173800,0.173800,0.173800,0.173800,0.173700,0.173700,0.173600,0.173500,0.173500,0.173400,0.173300,0.173000,0.172900,0.172800,0.172800,0.172700,0.172600,0.172500,0.172400,0.172400,0.172400,0.172300,0.172200,0.172200,0.172100,0.172000,0.171600,0.171600,0.171600,0.171600,0.171600,0.171600,0.171500,0.171400,0.171300,0.171300,0.171300,0.171300,0.171200,0.170800,0.170600,0.170600,0.170600,0.170600,0.170600,0.170600,0.170500,0.170400,0.170300,0.170300,0.170200,0.170100,0.170000,0.170000,0.169800,0.169600,0.169400,0.169200,0.169200,0.169200,0.169200,0.169300,0.169200,0.169200,0.169100,0.169000,0.169000,0.169000,0.169000,0.169100,0.169100,0.169000,0.169000,0.169000,0.169000,0.169100,1.000000,1.000000,1.000000,1.000000,1.000000,1.000000,1.000000,1.000000,1.000000,1.000000,1.000000,1.000000,1.000000,1.000000,1.000000,1.000000,1.000000,1.000000,1.000000,1.000000,1.000000,1.000000,1.000000,1.000000,1.000000,1.000000,1.000000,1.000000,1.000000,1.000000,1.000000,1.000000,1.000000,1.000000,1.000000,1.000000,1.000000,1.000000,1.000000,1.000000,1.000000,1.000000,1.000000,1.000000,1.000000,1.000000,1.000000,1.000000,1.000000,1.000000,1.000000,1.000000,1.000000,1.000000,1.000000,1.000000,1.000000,1.000000,1.000000,1.000000,1.000000,1.000000,1.000000,1.000000,1.000000,1.000000,1.000000,1.000000,1.000000,1.000000,1.000000,1.000000,1.000000,1.000000
1.000000,1.000000,1.000000,1.000000,1.000000,1.000000,1.000000,1.000000,1.000000,1.000000,1.000000,1.000000,1.000000,1.000000,1.000000,1.000000,1.000000,1.000000,1.000000,1.000000,1.000000,1.000000,1.000000,1.000000,1.000000,1.000000,1.000000,1.000000,1.000000,0.178200,0.178200,0.178300,0.178700,0.178700,0.178600,0.178500,0.178400,0.178400,0.178400,0.178400,0.178300,0.178100,0.177900,0.177800,0.177600,0.177500,0.177500,0.177500,0.177500,0.177600,0.177600,0.177600,0.177600,0.177500,0.177400,0.177300,0.177200,0.177200,0.177200,0.177200,0.177200,0.177000,0.176700,0.176500,0.176400,0.176400,0.176400,0.176400,0.176400,0.176400,0.176300,0.176200,0.176100,0.176000,0.176000,0.175900,0.175900,0.175800,0.175700,0.175400,0.175300,0.175200,0.175100,0.175100,0.174900,0.174800,0.174800,0.174700,0.174600,0.174600,0.174600,0.174500,0.174400,0.174300,0.174100,0.174100,0.174100,0.174100,0.174100,0.174100,0.174100,0.174000,0.174000,0.173900,0.173900,0.173900,0.173800,0.173800,0.173800,0.173800,0.173700,0.173600,0.173600,0.173500,0.173500,0.173400,0.173300,0.172900,0.172800,0.172800,0.172700,0.172700,0.172600,0.172500,0.172400,0.172400,0.172300,0.172200,0.172100,0.172100,0.172000,0.171700,0.171500,0.171500,0.171500,0.171500,0.171600,0.171500,0.171500,0.171400,0.171300,0.171300,0.171300,0.171300,0.171100,0.170800,0.170600,0.170500,0.170500,0.170500,0.170500,0.170500,0.170500,0.170400,0.170300,0.170200,0.170200,0.170100,0.170000,0.169900,0.169700,0.169600,0.169400,0.169200,0.169100,0.169100,0.169100,0.169200,0.169100,0.169100,0.169000,0.169000,0.169000,0.169000,0.169000,0.169000,0.169000,0.169000,0.169000,0.169000,0.169000,0.169000,1.000000,1.000000,1.000000,1.000000,1.000000,1.000000,1.000000,1.000000,1.000000,1.000000,1.000000,1.000000,1.000000,1.000000,1.000000,1.000000,1.000000,1.000000,1.000000,1.000000,1.000000,1.000000,1.000000,1.000000,1.000000,1.000000,1.000000,1.000000,1.000000,1.000000,1.000000,1.000000,1.000000,1.000000,1.000000,1.000000,1.000000,1.000000,1.000000,1.000000,1.000000,1.000000,1.000000,1.000000,1.000000,1.000000,1.000000,1.000000,1.000000,1.000000,1.000000,1.000000,1.000000,1.000000,1.000000,1.000000,1.000000,1.000000,1.000000,1.000000,1.000000,1.000000,1.000000,1.000000,1.000000,1.000000,1.000000,1.000000,1.000000,1.000000,1.000000,1.000000,1.000000,1.000000
1.000000,1.000000,1.000000,1.000000,1.000000,1.000000,1.000000,1.000000,1.000000,1.000000,1.000000,1.000000,1.000000,1.000000,1.000000,1.000000,1.000000,1.000000,1.000000,1.000000,1.000000,1.000000,1.000000,1.000000,1.000000,1.000000,1.000000,1.000000,1.000000,1.000000,0.178200,0.178200,0.178600,0.178600,0.178600,0.178500,0.178400,0.178400,0.178400,0.178400,0.178400,0.178200,0.177900,0.177700,0.177600,0.177500,0.177500,0.177500,0.177500,0.177600,0.177600,0.177600,0.177500,0.177400,0.177300,0.177200,0.177200,0.177200,0.177200,0.177200,0.177200,0.177000,0.176600,0.176500,0.176400,0.176400,0.176400,0.176400,0.176400,0.176400,0.176300,0.176200,0.176100,0.176000,0.176000,0.175900,0.175900,0.175800,0.175800,0.175400,0.175300,0.175200,0.175100,0.175100,0.174900,0.174800,0.174800,0.174700,0.174600,0.174600,0.174500,0.174500,0.174300,0.174200,0.174100,0.174100,0.174100,0.174100,0.174100,0.174100,0.174100,0.174000,0.174000,0.173900,0.173900,0.173900,0.173900,0.173800,0.173800,0.173700,0.173600,0.173600,0.173500,0.173500,0.173500,0.173400,0.173300,0.172800,0.172800,0.172700,0.172700,0.172600,0.172500,0.172500,0.172400,0.172300,0.172300,0.172100,0.172100,0.171900,0.171600,0.171500,0.171500,0.171500,0.171500,0.171500,0.171600,0.171500,0.171500,0.171400,0.171300,0.171300,0.171300,0.171200,0.171000,0.170800,0.170600,0.170500,0.170400,0.170400,0.170500,0.170500,0.170400,0.170300,0.170300,0.170200,0.170200,0.170100,0.170000,0.169900,0.169700,0.169500,0.169400,0.169200,0.169100,0.169100,0.169100,0.169100,0.169100,0.169100,0.169000,0.169000,0.168900,0.168900,0.168900,0.168900,0.168900,0.168900,0.168900,0.169000,0.169000,1.000000,1.000000,1.000000,1.000000,1.000000,1.000000,1.000000,1.000000,1.000000,1.000000,1.000000,1.000000,1.000000,1.000000,1.000000,1.000000,1.000000,1.000000,1.000000,1.000000,1.000000,1.000000,1.000000,1.000000,1.000000,1.000000,1.000000,1.000000,1.000000,1.000000,1.000000,1.000000,1.000000,1.000000,1.000000,1.000000,1.000000,1.000000,1.000000,1.000000,1.000000,1.000000,1.000000,1.000000,1.000000,1.000000,1.000000,1.000000,1.000000,1.000000,1.000000,1.000000,1.000000,1.000000,1.000000,1.000000,1.000000,1.000000,1.000000,1.000000,1.000000,1.000000,1.000000,1.000000,1.000000,1.000000,1.000000,1.000000,1.000000,1.000000,1.000000,1.000000,1.000000,1.000000,1.000000
1.000000,1.000000,1.000000,1.000000,1.000000,1.000000,1.000000,1.000000,1.000000,1.000000,1.000000,1.000000,1.000000,1.000000,1.000000,1.000000,1.000000,1.000000,1.000000,1.000000,1.000000,1.000000,1.000000,1.000000,1.000000,1.000000,1.000000,0.318900,1.000000,1.000000,0.178200,0.178200,0.178500,0.178600,0.178500,0.178500,0.178400,0.178400,0.178400,0.178400,0.178400,0.178300,0.178100,0.177700,0.177600,0.177600,0.177600,0.177600,0.177600,0.177600,0.177600,0.177500,0.177400,0.177200,0.177200,0.177200,0.177200,0.177200,0.177200,0.177200,0.177000,0.176700,0.176500,0.176400,0.176400,0.176400,0.176400,0.176400,0.176400,0.176300,0.176200,0.176200,0.176100,0.176000,0.175900,0.175900,0.175900,0.175800,0.175700,0.175400,0.175300,0.175200,0.175100,0.175000,0.174900,0.174900,0.174800,0.174700,0.174600,0.174500,0.174500,0.174400,0.174200,0.174100,0.174000,0.174000,0.174100,0.174100,0.174100,0.174100,0.174100,0.174000,0.174000,0.173900,0.173900,0.173900,0.173800,0.173800,0.173700,0.173600,0.173600,0.173500,0.173500,0.173500,0.173400,0.173300,0.173100,0.172800,0.172700,0.172600,0.172500,0.172500,0.172400,0.172400,0.172300,0.172200,0.172200,0.172000,0.171800,0.171600,0.171500,0.171400,0.171400,0.171400,0.171400,0.171500,0.171500,0.171500,0.171500,0.171400,0.171300,0.171300,0.171200,0.171100,0.170800,0.170800,0.170600,0.170500,0.170400,0.170400,0.170400,0.170500,0.170400,0.170300,0.170300,0.170200,0.170100,0.170100,0.170000,0.169900,0.169700,0.169500,0.169400,0.169200,0.169200,0.169200,0.169200,0.169200,0.169100,0.169100,0.169000,0.169000,0.168900,0.168800,0.168800,0.168800,0.168800,0.168800,0.168900,0.168900,0.168900,1.000000,1.000000,1.000000,1.000000,1.000000,1.000000,1.000000,1.000000,1.000000,1.000000,1.000000,1.000000,1.000000,1.000000,1.000000,1.000000,1.000000,1.000000,1.000000,1.000000,1.000000,1.000000,1.000000,1.000000,1.000000,1.000000,1.000000,1.000000,1.000000,1.000000,1.000000,1.000000,1.000000,1.000000,1.000000,1.000000,1.000000,1.000000,1.000000,1.000000,1.000000,1.000000,1.000000,1.000000,1.000000,1.000000,1.000000,1.000000,1.000000,1.000000,1.000000,1.000000,1.000000,1.000000,1.000000,1.000000,1.000000,1.000000,1.000000,1.000000,1.000000,1.000000,1.000000,1.000000,1.000000,1.000000,1.000000,1.000000,1.000000,1.000000,1.000000,1.000000,1.000000,1.000000,1.000000
1.000000,1.000000,1.000000,1.000000,1.000000,1.000000,1.000000,1.000000,1.000000,1.000000,1.000000,1.000000,1.000000,1.000000,1.000000,1.000000,1.000000,1.000000,1.000000,1.000000,1.000000,1.000000,1.000000,0.319000,0.319000,1.000000,0.318900,0.318900,0.318900,1.000000,0.178200,0.178300,0.178500,0.178500,0.178500,0.178400,0.178300,0.178300,0.178400,0.178400,0.178400,0.178400,0.178200,0.177800,0.177800,0.177800,0.177900,0.177900,0.177700,0.177700,0.177600,0.177500,0.177400,0.177200,0.177200,0.177100,0.177100,0.177200,0.177200,0.177200,0.176800,0.176500,0.176400,0.176300,0.176300,0.176400,0.176400,0.176400,0.176400,0.176200,0.176200,0.176100,0.176000,0.176000,0.175900,0.175900,0.175800,0.175700,0.175600,0.175400,0.175300,0.175200,0.175100,0.175100,0.174900,0.174900,0.174800,0.174700,0.174600,0.174400,0.174400,0.174300,0.174100,0.174000,0.174000,0.174000,0.174100,0.174100,0.174200,0.174100,0.174100,0.174000,0.174000,0.173900,0.173900,0.173800,0.173700,0.173700,0.173600,0.173500,0.173400,0.173400,0.173400,0.173400,0.173400,0.173200,0.173100,0.172700,0.172600,0.172600,0.172400,0.172400,0.172300,0.172300,0.172300,0.172200,0.172100,0.172000,0.171800,0.171600,0.171400,0.171400,0.171400,0.171400,0.171400,0.171500,0.171500,0.171500,0.171400,0.171400,0.171300,0.171200,0.171100,0.171100,0.170800,0.170700,0.170600,0.170500,0.170400,0.170400,0.170400,0.170400,0.170400,0.170300,0.170200,0.170100,0.170100,0.170100,0.170000,0.169900,0.169600,0.169400,0.169300,0.169200,0.169200,0.169200,0.169200,0.169200,0.169100,0.169100,0.169000,0.168900,0.168900,0.168800,0.168800,0.168800,0.168800,0.168800,0.168800,0.168800,0.168700,1.000000,1.000000,1.000000,1.000000,1.000000,1.000000,1.000000,1.000000,1.000000,1.000000,1.000000,1.000000,1.000000,1.000000,1.000000,1.000000,1.000000,1.000000,1.000000,1.000000,1.000000,1.000000,1.000000,1.000000,1.000000,1.000000,1.000000,1.000000,1.000000,1.000000,1.000000,1.000000,1.000000,1.000000,1.000000,1.000000,1.000000,1.000000,1.000000,1.000000,1.000000,1.000000,1.000000,1.000000,1.000000,1.000000,1.000000,1.000000,1.000000,1.000000,1.000000,1.000000,1.000000,1.000000,1.000000,1.000000,1.000000,1.000000,1.000000,1.000000,1.000000,1.000000,1.000000,1.000000,1.000000,1.000000,1.000000,1.000000,1.000000,1.000000,1.000000,1.000000,1.000000,1.000000,1.000000
1.000000,1.000000,1.000000,1.000000,1.000000,1.000000,1.000000,1.000000,1.000000,1.000000,1.000000,1.000000,1.000000,1.000000,1.000000,1.000000,1.000000,1.000000,1.000000,1.000000,1.000000,0.320000,0.319000,0.319000,0.318900,0.318900,0.318800,0.318800,0.318800,0.318800,1.000000,0.178500,0.178600,0.178600,0.178500,0.178400,0.178300,0.178300,0.178400,0.178400,0.178500,0.178400,0.178300,0.178100,0.177900,0.178000,0.178000,0.178000,0.177800,0.177700,0.177600,0.177500,0.177400,0.177200,0.177100,0.177100,0.177100,0.177100,0.177000,0.177000,0.176800,0.176300,0.176200,0.176200,0.176200,0.176200,0.176300,0.176300,0.176300,0.176200,0.176200,0.176100,0.176000,0.175900,0.175800,0.175800,0.175700,0.175600,0.175400,0.175300,0.175300,0.175200,0.175100,0.175100,0.174900,0.174800,0.174800,0.174600,0.174600,0.174400,0.174300,0.174200,0.174000,0.174000,0.174000,0.174000,0.174100,0.174100,0.174200,0.174200,0.174100,0.174000,0.174000,0.173900,0.173800,0.173700,0.173600,0.173600,0.173400,0.173400,0.173400,0.173400,0.173400,0.173400,0.173400,0.173200,0.173000,0.172700,0.172600,0.172500,0.172400,0.172300,0.172200,0.172100,0.172100,0.172000,0.172000,0.171800,0.171600,0.171500,0.171400,0.171400,0.171400,0.171400,0.171400,0.171400,0.171500,0.171400,0.171400,0.171300,0.171200,0.171200,0.171000,0.171000,0.170800,0.170700,0.170600,0.170500,0.170500,0.170500,0.170500,0.170400,0.170400,0.170300,0.170200,0.170100,0.170000,0.170000,0.169900,0.169800,0.169500,0.169400,0.169300,0.169300,0.169300,0.169300,0.169300,0.169300,0.169200,0.169100,0.169000,0.169000,0.169000,0.168900,0.168800,0.168800,0.168800,0.168800,0.168700,0.168700,0.168600,1.000000,1.000000,1.000000,1.000000,1.000000,1.000000,1.000000,1.000000,1.000000,1.000000,1.000000,1.000000,1.000000,1.000000,1.000000,1.000000,1.000000,1.000000,1.000000,1.000000,1.000000,1.000000,1.000000,1.000000,1.000000,1.000000,1.000000,1.000000,1.000000,1.000000,1.000000,1.000000,1.000000,1.000000,1.000000,1.000000,1.000000,1.000000,1.000000,1.000000,1.000000,1.000000,1.000000,1.000000,1.000000,1.000000,1.000000,1.000000,1.000000,1.000000,1.000000,1.000000,1.000000,1.000000,1.000000,1.000000,1.000000,1.000000,1.000000,1.000000,1.000000,1.000000,1.000000,1.000000,1.000000,1.000000,1.000000,1.000000,1.000000,1.000000,1.000000,1.000000,1.000000,1.000000,1.000000
1.000000,1.000000,1.000000,1.000000,1.000000,1.000000,1.000000,1.000000,1.000000,1.000000,1.000000,1.000000,1.000000,1.000000,1.000000,1.000000,1.000000,1.000000,1.000000,1.000000,1.000000,0.317500,0.317500,0.317500,0.317600,0.318800,0.318800,0.318800,0.318800,0.318800,1.000000,0.178700,0.178700,0.178600,0.178500,0.178400,0.178300,0.178300,0.178300,0.178300,0.178400,0.178200,0.178200,0.178100,0.178000,0.178100,0.178100,0.178200,0.178000,0.177800,0.177700,0.177500,0.177400,0.177200,0.177100,0.177100,0.177100,0.177100,0.177000,0.176900,0.176700,0.176300,0.176100,0.176100,0.176100,0.176200,0.176200,0.176300,0.176300,0.176200,0.176200,0.176100,0.176000,0.175900,0.175800,0.175700,0.175600,0.175400,0.175300,0.175200,0.175200,0.175200,0.175200,0.175100,0.174900,0.174800,0.174700,0.174600,0.174400,0.174300,0.174200,0.174100,0.174000,0.173900,0.173900,0.174000,0.174000,0.174100,0.174100,0.174100,0.174100,0.174000,0.173900,0.173900,0.173700,0.173600,0.173500,0.173400,0.173400,0.173400,0.173400,0.173400,0.173400,0.173400,0.173300,0.173100,0.173000,0.172800,0.172700,0.172600,0.172300,0.172200,0.172100,0.172100,0.172000,0.171900,0.171900,0.171700,0.171600,0.171500,0.171400,0.171400,0.171400,0.171400,0.171400,0.171400,0.171400,0.171400,0.171400,0.171300,0.171200,0.171100,0.171000,0.170900,0.170800,0.170700,0.170600,0.170600,0.170500,0.170500,0.170500,0.170400,0.170400,0.170200,0.170100,0.170000,0.169800,0.169800,0.169800,0.169800,0.169600,0.169400,0.169400,0.169400,0.169400,0.169400,0.169400,0.169300,0.169100,0.169000,0.169000,0.169000,0.169000,0.169000,0.168900,0.168900,0.168800,0.168800,0.168700,0.168600,0.168500,1.000000,1.000000,1.000000,1.000000,1.000000,1.000000,1.000000,1.000000,1.000000,1.000000,1.000000,1.000000,1.000000,1.000000,1.000000,1.000000,1.000000,1.000000,1.000000,1.000000,1.000000,1.000000,1.000000,1.000000,1.000000,1.000000,1.000000,1.000000,1.000000,1.000000,1.000000,1.000000,1.000000,1.000000,1.000000,1.000000,1.000000,1.000000,1.000000,1.000000,1.000000,1.000000,1.000000,1.000000,1.000000,1.000000,1.000000,1.000000,1.000000,1.000000,1.000000,1.000000,1.000000,1.000000,1.000000,1.000000,1.000000,1.000000,1.000000,1.000000,1.000000,1.000000,1.000000,1.000000,1.000000,1.000000,1.000000,1.000000,1.000000,1.000000,1.000000,1.000000,1.000000,1.000000,1.000000
1.000000,1.000000,1.000000,1.000000,1.000000,1.000000,1.000000,1.000000,1.000000,1.000000,1.000000,1.000000,1.000000,1.000000,1.000000,1.000000,1.000000,1.000000,1.000000,1.000000,1.000000,0.316700,0.316700,0.317000,0.317400,0.318600,0.318700,0.318700,0.318800,1.000000,1.000000,0.178800,0.178700,0.178700,0.178500,0.178500,0.178300,0.178300,0.178300,0.178300,0.178300,0.178200,0.178000,0.178000,0.178000,0.178000,0.178100,0.178200,0.178000,0.177900,0.177700,0.177500,0.177400,0.177200,0.177100,0.177100,0.177100,0.177000,0.176900,0.176800,0.176700,0.176300,0.176100,0.176100,0.176100,0.176100,0.176200,0.176300,0.176300,0.176200,0.176200,0.176100,0.176000,0.175900,0.175800,0.175700,0.175600,0.175400,0.175200,0.175200,0.175200,0.175200,0.175200,0.175100,0.175000,0.174800,0.174700,0.174500,0.174400,0.174200,0.174100,0.174100,0.174000,0.173900,0.173900,0.174000,0.174000,0.174000,0.174100,0.174000,0.174000,0.173900,0.173900,0.173800,0.173600,0.173600,0.173400,0.173400,0.173300,0.173300,0.173400,0.173400,0.173400,0.173300,0.173300,0.173100,0.173000,0.172900,0.172800,0.172600,0.172300,0.172200,0.172000,0.172000,0.171900,0.171900,0.171800,0.171600,0.171500,0.171500,0.171400,0.171400,0.171300,0.171300,0.171300,0.171400,0.171400,0.171400,0.171300,0.171300,0.171200,0.171100,0.170900,0.170800,0.170700,0.170700,0.170600,0.170600,0.170600,0.170500,0.170500,0.170400,0.170300,0.170200,0.170000,0.169900,0.169800,0.169800,0.169800,0.169700,0.169600,0.169500,0.169500,0.169400,0.169500,0.169500,0.169400,0.169300,0.169000,0.169000,0.169000,0.169000,0.169000,0.169000,0.169000,0.168900,0.168900,0.168800,0.168600,0.168600,0.168500,1.000000,1.000000,1.000000,1.000000,1.000000,1.000000,1.000000,1.000000,1.000000,1.000000,1.000000,1.000000,1.000000,1.000000,1.000000,1.000000,1.000000,1.000000,1.000000,1.000000,1.000000,1.000000,1.000000,1.000000,1.000000,1.000000,1.000000,1.000000,1.000000,1.000000,1.000000,1.000000,1.000000,1.000000,1.000000,1.000000,1.000000,1.000000,1.000000,1.000000,1.000000,1.000000,1.000000,1.000000,1.000000,1.000000,1.000000,1.000000,1.000000,1.000000,1.000000,1.000000,1.000000,1.000000,1.000000,1.000000,1.000000,1.000000,1.000000,1.000000,1.000000,1.000000,1.000000,1.000000,1.000000,1.000000,1.000000,1.000000,1.000000,1.000000,1.000000,1.000000,1.000000,1.000000,1.000000
1.000000,1.000000,1.000000,1.000000,1.000000,1.000000,1.000000,1.000000,1.000000,1.000000,1.000000,1.000000,1.000000,1.000000,1.000000,1.000000,1.000000,1.000000,1.000000,1.000000,1.000000,1.000000,0.316600,0.316700,0.316800,1.000000,0.318600,0.318700,1.000000,1.000000,1.000000,0.178800,0.178800,0.178700,0.178600,0.178500,0.178400,0.178300,0.178300,0.178200,0.178200,0.178000,0.177900,0.177900,0.177800,0.177900,0.178000,0.178100,0.178000,0.177900,0.177700,0.177400,0.177300,0.177100,0.177100,0.177100,0.177000,0.177000,0.176900,0.176800,0.176700,0.176400,0.176100,0.176100,0.176100,0.176100,0.176300,0.176300,0.176400,0.176200,0.176200,0.176100,0.176000,0.175900,0.175700,0.175600,0.175400,0.175300,0.175200,0.175200,0.175200,0.175200,0.175200,0.175200,0.175000,0.174900,0.174800,0.174400,0.174300,0.174200,0.174100,0.174100,0.174000,0.174000,0.174000,0.174000,0.174000,0.174000,0.174000,0.174000,0.173900,0.173800,0.173800,0.173700,0.173600,0.173500,0.173400,0.173300,0.173300,0.173300,0.173400,0.173300,0.173200,0.173200,0.173100,0.173000,0.173000,0.172900,0.172800,0.172800,0.172300,0.172100,0.172000,0.171900,0.171900,0.171800,0.171700,0.171600,0.171500,0.171500,0.171400,0.171400,0.171300,0.171300,0.171300,0.171300,0.171300,0.171200,0.171200,0.171200,0.171100,0.171000,0.170800,0.170800,0.170700,0.170700,0.170700,0.170600,0.170600,0.170500,0.170500,0.170400,0.170300,0.170100,0.170000,0.169900,0.169700,0.169700,0.169700,0.169700,0.169700,0.169700,0.169600,0.169600,0.169600,0.169500,0.169400,0.169100,0.169000,0.169000,0.169000,0.169000,0.169100,0.169100,0.169100,0.169000,0.168900,0.168800,0.168600,0.168500,0.168400,0.168300,1.000000,1.000000,1.000000,1.000000,1.000000,1.000000,1.000000,1.000000,1.000000,1.000000,1.000000,1.000000,1.000000,1.000000,1.000000,1.000000,1.000000,1.000000,1.000000,1.000000,1.000000,1.000000,1.000000,1.000000,1.000000,1.000000,1.000000,1.000000,1.000000,1.000000,1.000000,1.000000,1.000000,1.000000,1.000000,1.000000,1.000000,1.000000,1.000000,1.000000,1.000000,1.000000,1.000000,1.000000,1.000000,1.000000,1.000000,1.000000,1.000000,1.000000,1.000000,1.000000,1.000000,1.000000,1.000000,1.000000,1.000000,1.000000,1.000000,1.000000,1.000000,1.000000,1.000000,1.000000,1.000000,1.000000,1.000000,1.000000,1.000000,1.000000,1.000000,1.000000,1.000000,1.000000
1.000000,1.000000,1.000000,1.000000,1.000000,1.000000,1.000000,1.000000,1.000000,1.000000,1.000000,1.000000,1.000000,1.000000,1.000000,1.000000,1.000000,1.000000,1.000000,1.000000,1.000000,1.000000,0.316500,1.000000,0.316500,1.000000,1.000000,1.000000,1.000000,1.000000,0.178700,0.178600,0.178600,0.178600,0.178600,0.178500,0.178400,0.178400,0.178300,0.178200,0.178100,0.177900,0.177800,0.177700,0.177700,0.177700,0.177800,0.178000,0.177900,0.177800,0.177600,0.177300,0.177200,0.177100,0.177000,0.177000,0.176900,0.176900,0.176800,0.176800,0.176700,0.176400,0.176300,0.176200,0.176200,0.176200,0.176300,0.176400,0.176400,0.176200,0.176200,0.176100,0.175900,0.175800,0.175600,0.175500,0.175400,0.175200,0.175200,0.175200,0.175200,0.175200,0.175200,0.175200,0.175100,0.174900,0.174800,0.174400,0.174300,0.174200,0.174100,0.174100,0.174000,0.174000,0.174000,0.174000,0.174000,0.174000,0.173900,0.173900,0.173800,0.173700,0.173600,0.173600,0.173400,0.173400,0.173300,0.173300,0.173300,0.173300,0.173300,0.173300,0.173100,0.173100,0.173000,0.173000,0.173000,0.173000,0.172900,0.172900,0.172800,0.172100,0.172000,0.171900,0.171900,0.171800,0.171700,0.171600,0.171600,0.171500,0.171400,0.171400,0.171300,0.171300,0.171200,0.171200,0.171200,0.171200,0.171200,0.171100,0.171100,0.171000,0.170800,0.170700,0.170600,0.170600,0.170600,0.170700,0.170600,0.170600,0.170500,0.170400,0.170300,0.170100,0.170000,0.169800,0.169700,0.169700,0.169700,0.169700,0.169700,0.169700,0.169700,0.169700,0.169600,0.169500,0.169000,0.168900,0.168800,0.168800,0.168800,0.168800,0.169000,0.169000,0.169000,0.169000,0.168900,0.168800,0.168500,0.168400,0.168300,0.168300,1.000000,1.000000,1.000000,1.000000,1.000000,1.000000,1.000000,1.000000,1.000000,1.000000,1.000000,1.000000,1.000000,1.000000,1.000000,1.000000,1.000000,1.000000,1.000000,1.000000,1.000000,1.000000,1.000000,1.000000,1.000000,1.000000,1.000000,1.000000,1.000000,1.000000,1.000000,1.000000,1.000000,1.000000,1.000000,1.000000,1.000000,1.000000,1.000000,1.000000,1.000000,1.000000,1.000000,1.000000,1.000000,1.000000,1.000000,1.000000,1.000000,1.000000,1.000000,1.000000,1.000000,1.000000,1.000000,1.000000,1.000000,1.000000,1.000000,1.000000,1.000000,1.000000,1.000000,1.000000,1.000000,1.000000,1.000000,1.000000,1.000000,1.000000,1.000000,1.000000,1.000000,1.000000
1.000000,1.000000,1.000000,1.000000,1.000000,1.000000,1.000000,1.000000,1.000000,1.000000,1.000000,1.000000,1.000000,1.000000,1.000000,1.000000,1.000000,1.000000,1.000000,1.000000,1.000000,1.000000,1.000000,1.000000,1.000000,1.000000,1.000000,1.000000,1.000000,1.000000,0.178500,0.178500,0.178600,0.178600,0.178500,0.178500,0.178400,0.178400,0.178300,0.178200,0.178100,0.178000,0.177800,0.177700,0.177600,0.177600,0.177600,0.177600,0.177200,0.177200,0.177100,0.177000,0.177000,0.176900,0.176800,0.176800,0.176800,0.176700,0.176700,0.176600,0.176600,0.176400,0.176300,0.176200,0.176200,0.176200,0.176200,0.176200,0.176000,0.175800,0.175800,0.175800,0.175700,0.175600,0.175400,0.175300,0.175300,0.175200,0.175200,0.175200,0.175200,0.175200,0.175200,0.175200,0.175000,0.174900,0.174700,0.174500,0.174400,0.174200,0.174200,0.174200,0.174100,0.174000,0.174000,0.174000,0.173900,0.173900,0.173900,0.173800,0.173800,0.173600,0.173600,0.173500,0.173400,0.173300,0.173300,0.173300,0.173300,0.173300,0.173300,0.173200,0.173000,0.172900,0.172900,0.172900,0.172900,0.172900,0.172900,0.172900,0.172800,0.172300,0.172000,0.171900,0.171900,0.171800,0.171700,0.171600,0.171600,0.171500,0.171400,0.171400,0.171300,0.171300,0.171200,0.171200,0.171100,0.171100,0.171100,0.171100,0.171000,0.170900,0.170700,0.170600,0.170600,0.170600,0.170600,0.170600,0.170700,0.170600,0.170600,0.170500,0.170300,0.170200,0.170000,0.169800,0.169700,0.169700,0.169700,0.169700,0.169800,0.169800,0.169800,0.169700,0.169600,0.169300,0.169000,0.168900,0.168800,0.168800,0.168800,0.168800,0.168900,0.168900,0.169000,0.168900,0.168800,0.168700,0.168500,0.168400,0.168200,0.168200,0.168200,0.168100,1.000000,1.000000,1.000000,1.000000,1.000000,1.000000,1.000000,1.000000,1.000000,1.000000,1.000000,1.000000,1.000000,1.000000,1.000000,1.000000,1.000000,1.000000,1.000000,1.000000,1.000000,1.000000,1.000000,1.000000,1.000000,1.000000,1.000000,1.000000,1.000000,1.000000,1.000000,1.000000,1.000000,1.000000,1.000000,1.000000,1.000000,1.000000,1.000000,1.000000,1.000000,1.000000,1.000000,1.000000,1.000000,1.000000,1.000000,1.000000,1.000000,1.000000,1.000000,1.000000,1.000000,1.000000,1.000000,1.000000,1.000000,1.000000,1.000000,1.000000,1.000000,1.000000,1.000000,1.000000,1.000000,1.000000,1.000000,1.000000,1.000000,1.000000,1.000000,1.000000
1.000000,1.000000,1.000000,1.000000,1.000000,1.000000,1.000000,1.000000,1.000000,1.000000,1.000000,1.000000,1.000000,1.000000,1.000000,1.000000,1.000000,1.000000,1.000000,1.000000,1.000000,1.000000,1.000000,1.000000,1.000000,1.000000,1.000000,1.000000,1.000000,0.178400,0.178400,0.178400,0.178400,0.178500,0.178500,0.178500,0.178300,0.178200,0.178200,0.178200,0.178100,0.178100,0.178000,0.177900,0.177700,0.177600,0.177600,0.177500,0.177200,0.177200,0.177100,0.177000,0.176900,0.176800,0.176800,0.176700,0.176600,0.176600,0.176500,0.176500,0.176500,0.176400,0.176300,0.176200,0.176200,0.176200,0.176200,0.176000,0.175800,0.175700,0.175700,0.175700,0.175600,0.175500,0.175300,0.175300,0.175200,0.175200,0.175200,0.175200,0.175200,0.175200,0.175200,0.175000,0.174400,0.174400,0.174400,0.174400,0.174400,0.174300,0.174300,0.174200,0.174100,0.174100,0.173900,0.173900,0.173900,0.173900,0.173800,0.173700,0.173700,0.173500,0.173400,0.173400,0.173300,0.173300,0.173200,0.173200,0.173200,0.173300,0.173200,0.173100,0.173000,0.172900,0.172900,0.172900,0.172900,0.172900,0.172900,0.172900,0.172700,0.172100,0.172000,0.171900,0.171900,0.171800,0.171800,0.171700,0.171600,0.171600,0.171500,0.171400,0.171300,0.171300,0.171200,0.171200,0.171100,0.171100,0.171100,0.171100,0.171000,0.170900,0.170700,0.170600,0.170500,0.170500,0.170500,0.170500,0.170700,0.170700,0.170600,0.170600,0.170300,0.170200,0.170000,0.169900,0.169800,0.169800,0.169700,0.169800,0.169800,0.169700,0.169700,0.169600,0.169500,0.169000,0.168900,0.168800,0.168800,0.168700,0.168700,0.168700,0.168700,0.168700,0.168700,0.168700,0.168600,0.168600,0.168400,0.168400,0.168200,0.168200,0.168200,1.000000,1.000000,1.000000,1.000000,1.000000,1.000000,1.000000,1.000000,1.000000,1.000000,1.000000,1.000000,1.000000,1.000000,1.000000,1.000000,1.000000,1.000000,1.000000,1.000000,1.000000,1.000000,1.000000,1.000000,1.000000,1.000000,1.000000,1.000000,1.000000,1.000000,1.000000,1.000000,1.000000,1.000000,1.000000,1.000000,1.000000,1.000000,1.000000,1.000000,1.000000,1.000000,1.000000,1.000000,1.000000,1.000000,1.000000,1.000000,1.000000,1.000000,1.000000,1.000000,1.000000,1.000000,1.000000,1.000000,1.000000,1.000000,1.000000,1.000000,1.000000,1.000000,1.000000,1.000000,1.000000,1.000000,1.000000,1.000000,1.000000,1.000000,1.000000,1.000000,1.000000
1.000000,1.000000,1.000000,1.000000,1.000000,1.000000,1.000000,1.000000,1.000000,1.000000,1.000000,1.000000,1.000000,1.000000,1.000000,1.000000,1.000000,1.000000,1.000000,1.000000,1.000000,1.000000,1.000000,1.000000,1.000000,1.000000,1.000000,1.000000,1.000000,1.000000,0.178400,0.178300,0.178400,0.178400,0.178400,0.178400,0.178200,0.178100,0.178100,0.178100,0.178100,0.178100,0.178000,0.177900,0.177700,0.177600,0.177500,0.177400,0.177200,0.177200,0.177100,0.177000,0.176900,0.176800,0.176700,0.176600,0.176500,0.176400,0.176400,0.176400,0.176400,0.176300,0.176300,0.176200,0.176200,0.176200,0.176100,0.175900,0.175800,0.175700,0.175600,0.175600,0.175500,0.175400,0.175300,0.175200,0.175200,0.175200,0.175300,0.175300,0.175300,0.175200,0.174300,0.174300,0.174300,0.174300,0.174300,0.174300,0.174300,0.174300,0.174300,0.174300,0.174200,0.174100,0.173900,0.173900,0.173800,0.173800,0.173800,0.173700,0.173600,0.173500,0.173400,0.173400,0.173300,0.173300,0.173200,0.173200,0.173200,0.173200,0.173200,0.173100,0.173000,0.172900,0.172900,0.172900,0.172900,0.172900,0.172900,0.172800,0.172300,0.172100,0.172000,0.171900,0.171900,0.171900,0.171800,0.171700,0.171600,0.171600,0.171500,0.171500,0.171400,0.171300,0.171300,0.171200,0.171100,0.171100,0.171100,0.171000,0.171000,0.170800,0.170600,0.170600,0.170500,0.170500,0.170400,0.170400,0.170600,0.170700,0.170700,0.170600,0.170400,0.170300,0.170000,0.169900,0.169800,0.169800,0.169800,0.169700,0.169700,0.169700,0.169600,0.169500,0.169300,0.169000,0.168900,0.168800,0.168800,0.168700,0.168700,0.168700,0.168600,0.168600,0.168600,0.168600,0.168500,0.168500,0.168400,0.168400,0.168200,0.168200,0.168200,0.168100,1.000000,1.000000,1.000000,1.000000,1.000000,1.000000,1.000000,1.000000,1.000000,1.000000,1.000000,1.000000,1.000000,1.000000,1.000000,1.000000,1.000000,1.000000,1.000000,1.000000,1.000000,1.000000,1.000000,1.000000,1.000000,1.000000,1.000000,1.000000,1.000000,1.000000,1.000000,1.000000,1.000000,1.000000,1.000000,1.000000,1.000000,1.000000,1.000000,1.000000,1.000000,1.000000,1.000000,1.000000,1.000000,1.000000,1.000000,1.000000,1.000000,1.000000,1.000000,1.000000,1.000000,1.000000,1.000000,1.000000,1.000000,1.000000,1.000000,1.000000,1.000000,1.000000,1.000000,1.000000,1.000000,1.000000,1.000000,1.000000,1.000000,1.000000,1.000000,1.000000
1.000000,1.000000,1.000000,1.000000,1.000000,1.000000,1.000000,1.000000,1.000000,1.000000,1.000000,1.000000,1.000000,1.000000,1.000000,1.000000,1.000000,1.000000,1.000000,1.000000,1.000000,1.000000,1.000000,1.000000,1.000000,1.000000,1.000000,1.000000,1.000000,1.000000,0.178200,0.178200,0.178200,0.178300,0.178300,0.178200,0.177900,0.178000,0.178000,0.178000,0.178000,0.178000,0.178000,0.177900,0.177700,0.177600,0.177500,0.177400,0.177200,0.177200,0.177100,0.177000,0.177000,0.176800,0.176700,0.176500,0.176300,0.176200,0.176200,0.176200,0.176300,0.176300,0.176300,0.176200,0.176200,0.176200,0.176100,0.175900,0.175700,0.175600,0.175600,0.175600,0.175500,0.175400,0.175200,0.175200,0.175200,0.175300,0.175300,0.175300,0.175300,0.175200,0.174300,0.174300,0.174300,0.174200,0.174200,0.174200,0.174300,0.174300,0.174400,0.174300,0.174300,0.174200,0.174000,0.173900,0.173800,0.173800,0.173800,0.173600,0.173600,0.173400,0.173400,0.173300,0.173300,0.173300,0.173300,0.173200,0.173200,0.173200,0.173200,0.173100,0.173100,0.173000,0.172900,0.172800,0.172800,0.172700,0.172700,0.172600,0.172200,0.172100,0.172000,0.172000,0.172000,0.171900,0.171900,0.171700,0.171600,0.171600,0.171500,0.171500,0.171400,0.171400,0.171300,0.171200,0.171200,0.171100,0.171000,0.171000,0.170900,0.170800,0.170600,0.170500,0.170400,0.170300,0.170300,0.170300,0.170200,0.170700,0.170600,0.170600,0.170400,0.170300,0.170100,0.170000,0.169900,0.169800,0.169800,0.169700,0.169600,0.169600,0.169500,0.169400,0.169300,0.169000,0.169000,0.168900,0.168800,0.168800,0.168700,0.168600,0.168600,0.168500,0.168500,0.168500,0.168500,0.168500,0.168400,0.168400,0.168300,0.168300,0.168200,1.000000,1.000000,1.000000,1.000000,1.000000,1.000000,1.000000,1.000000,1.000000,1.000000,1.000000,1.000000,1.000000,1.000000,1.000000,1.000000,1.000000,1.000000,1.000000,1.000000,1.000000,1.000000,1.000000,1.000000,1.000000,1.000000,1.000000,1.000000,1.000000,1.000000,1.000000,1.000000,1.000000,1.000000,1.000000,1.000000,1.000000,1.000000,1.000000,1.000000,1.000000,1.000000,1.000000,1.000000,1.000000,1.000000,1.000000,1.000000,1.000000,1.000000,1.000000,1.000000,1.000000,1.000000,1.000000,1.000000,1.000000,1.000000,1.000000,1.000000,1.000000,1.000000,1.000000,1.000000,1.000000,1.000000,1.000000,1.000000,1.000000,1.000000,1.000000,1.000000,1.000000
1.000000,1.000000,1.000000,1.000000,1.000000,1.000000,1.000000,1.000000,1.000000,1.000000,1.000000,1.000000,1.000000,1.000000,1.000000,1.000000,1.000000,1.000000,1.000000,1.000000,1.000000,1.000000,1.000000,1.000000,1.000000,1.000000,1.000000,1.000000,1.000000,1.000000,0.178100,0.178100,0.178000,0.177900,0.177700,0.177700,0.177700,0.177800,0.177900,0.177900,0.177900,0.177900,0.177800,0.177800,0.177700,0.177600,0.177400,0.177400,0.177200,0.177100,0.177100,0.177100,0.177100,0.177000,0.176900,0.176500,0.176300,0.176200,0.176200,0.176200,0.176300,0.176400,0.176400,0.176400,0.176300,0.176200,0.176100,0.175900,0.175800,0.175700,0.175700,0.175700,0.175600,0.175500,0.175300,0.175200,0.175200,0.175200,0.175200,0.175200,0.175200,0.174900,0.174300,0.174300,0.174200,0.174200,0.174200,0.174200,0.174200,0.174300,0.174400,0.174400,0.174300,0.174200,0.174000,0.173900,0.173800,0.173800,0.173700,0.173600,0.173500,0.173400,0.173400,0.173300,0.173300,0.173300,0.173300,0.173300,0.173300,0.173200,0.173200,0.173200,0.173100,0.173000,0.172900,0.172800,0.172700,0.172600,0.172600,0.172400,0.172200,0.172100,0.172000,0.172000,0.172000,0.172000,0.171900,0.171800,0.171700,0.171600,0.171600,0.171500,0.171500,0.171400,0.171400,0.171300,0.171200,0.171100,0.171000,0.171000,0.170800,0.170800,0.170600,0.170500,0.170400,0.170300,0.170300,0.170100,0.170000,0.169900,0.169900,0.170200,0.170200,0.170200,0.170100,0.170000,0.169900,0.169800,0.169700,0.169600,0.169500,0.169500,0.169400,0.169300,0.169200,0.169000,0.169000,0.168900,0.168800,0.168800,0.168700,0.168600,0.168600,0.168500,0.168500,0.168400,0.168500,0.168500,0.168400,0.168500,0.168500,0.168500,0.170500,1.000000,1.000000,1.000000,1.000000,1.000000,1.000000,1.000000,1.000000,1.000000,1.000000,1.000000,1.000000,1.000000,1.000000,1.000000,1.000000,1.000000,1.000000,1.000000,1.000000,1.000000,1.000000,1.000000,1.000000,1.000000,1.000000,1.000000,1.000000,1.000000,1.000000,1.000000,1.000000,1.000000,1.000000,1.000000,1.000000,1.000000,1.000000,1.000000,1.000000,1.000000,1.000000,1.000000,1.000000,1.000000,1.000000,1.000000,1.000000,1.000000,1.000000,1.000000,1.000000,1.000000,1.000000,1.000000,1.000000,1.000000,1.000000,1.000000,1.000000,1.000000,1.000000,1.000000,1.000000,1.000000,1.000000,1.000000,1.000000,1.000000,1.000000,1.000000,1.000000,1.000000
1.000000,1.000000,1.000000,1.000000,1.000000,1.000000,1.000000,1.000000,1.000000,1.000000,1.000000,1.000000,1.000000,1.000000,1.000000,1.000000,1.000000,1.000000,1.000000,1.000000,1.000000,1.000000,1.000000,1.000000,1.000000,1.000000,1.000000,1.000000,1.000000,1.000000,0.178000,0.178000,0.177900,0.177800,0.177700,0.177700,0.177700,0.177800,0.177800,0.177900,0.177900,0.177800,0.177800,0.177700,0.177600,0.177600,0.177400,0.177300,0.177100,0.177000,0.177000,0.177000,0.177000,0.176900,0.176800,0.176600,0.176300,0.176200,0.176200,0.176200,0.176400,0.176400,0.176400,0.176400,0.176400,0.176300,0.176100,0.176000,0.175800,0.175800,0.175800,0.175700,0.175600,0.175500,0.175300,0.175300,0.175200,0.175200,0.175200,0.175100,0.175000,0.174900,0.174400,0.174400,0.174300,0.174300,0.174300,0.174200,0.174200,0.174300,0.174400,0.174400,0.174400,0.174300,0.174200,0.174100,0.173900,0.173900,0.173800,0.173600,0.173500,0.173400,0.173400,0.173300,0.173300,0.173300,0.173300,0.173300,0.173200,0.173200,0.173200,0.173200,0.173100,0.173100,0.172900,0.172800,0.172600,0.172600,0.172400,0.172300,0.172200,0.172100,0.172000,0.172000,0.172000,0.171900,0.171900,0.171700,0.171700,0.171600,0.171600,0.171600,0.171500,0.171400,0.171400,0.171300,0.171200,0.171100,0.171000,0.170900,0.170800,0.170700,0.170600,0.170500,0.170300,0.170200,0.170200,0.170000,0.170000,0.169800,0.169800,0.169900,0.170000,0.170100,0.170100,0.170000,0.170000,0.169800,0.169700,0.169500,0.169500,0.169400,0.169400,0.169300,0.169200,0.169200,0.169100,0.169000,0.168900,0.168800,0.168700,0.168600,0.168600,0.168500,0.168500,0.168500,0.168500,0.168500,0.168500,0.168600,0.168600,0.169800,1.000000,1.000000,1.000000,1.000000,1.000000,1.000000,1.000000,1.000000,1.000000,1.000000,1.000000,1.000000,1.000000,1.000000,1.000000,1.000000,1.000000,1.000000,1.000000,1.000000,1.000000,1.000000,1.000000,1.000000,1.000000,1.000000,1.000000,1.000000,1.000000,1.000000,1.000000,1.000000,1.000000,1.000000,1.000000,1.000000,1.000000,1.000000,1.000000,1.000000,1.000000,1.000000,1.000000,1.000000,1.000000,1.000000,1.000000,1.000000,1.000000,1.000000,1.000000,1.000000,1.000000,1.000000,1.000000,1.000000,1.000000,1.000000,1.000000,1.000000,1.000000,1.000000,1.000000,1.000000,1.000000,1.000000,1.000000,1.000000,1.000000,1.000000,1.000000,1.000000,1.000000,1.000000
1.000000,1.000000,1.000000,1.000000,1.000000,1.000000,1.000000,1.000000,1.000000,1.000000,1.000000,1.000000,1.000000,1.000000,1.000000,1.000000,1.000000,1.000000,1.000000,1.000000,1.000000,1.000000,1.000000,1.000000,1.000000,1.000000,1.000000,1.000000,1.000000,1.000000,0.177900,0.177800,0.177700,0.177600,0.177600,0.177600,0.177700,0.177800,0.177800,0.177800,0.177800,0.177700,0.177700,0.177700,0.177600,0.177600,0.177400,0.177200,0.177100,0.177000,0.177000,0.177000,0.177000,0.176800,0.176700,0.176600,0.176400,0.176300,0.176300,0.176400,0.176500,0.176500,0.176500,0.176500,0.176500,0.176400,0.176200,0.176100,0.175900,0.175900,0.175800,0.175800,0.175800,0.175700,0.175400,0.175300,0.175200,0.175000,0.175000,0.174900,0.174800,0.174800,0.174500,0.174400,0.174300,0.174300,0.174300,0.174300,0.174300,0.174300,0.174300,0.174400,0.174400,0.174300,0.174200,0.174200,0.174000,0.173900,0.173800,0.173600,0.173600,0.173400,0.173400,0.173400,0.173300,0.173300,0.173300,0.173200,0.173200,0.173200,0.173200,0.173200,0.173100,0.173000,0.172800,0.172700,0.172600,0.172500,0.172400,0.172300,0.172200,0.172100,0.172100,0.172000,0.172000,0.171900,0.171800,0.171700,0.171600,0.171600,0.171600,0.171500,0.171500,0.171400,0.171400,0.171300,0.171200,0.171100,0.171000,0.170900,0.170800,0.170700,0.170600,0.170500,0.170300,0.170200,0.170100,0.170000,0.170000,0.169900,0.169800,0.169900,0.169900,0.170000,0.170000,0.170000,0.170000,0.169800,0.169700,0.169500,0.169400,0.169300,0.169300,0.169300,0.169200,0.169200,0.169200,0.169100,0.169000,0.168800,0.168600,0.168600,0.168500,0.168500,0.168500,0.168500,0.168500,0.168500,0.168600,0.168700,0.168700,0.170400,1.000000,1.000000,1.000000,1.000000,1.000000,1.000000,1.000000,1.000000,1.000000,1.000000,1.000000,1.000000,1.000000,1.000000,1.000000,1.000000,1.000000,1.000000,1.000000,1.000000,1.000000,1.000000,1.000000,1.000000,1.000000,1.000000,1.000000,1.000000,1.000000,1.000000,1.000000,1.000000,1.000000,1.000000,1.000000,1.000000,1.000000,1.000000,1.000000,1.000000,1.000000,1.000000,1.000000,1.000000,1.000000,1.000000,1.000000,1.000000,1.000000,1.000000,1.000000,1.000000,1.000000,1.000000,1.000000,1.000000,1.000000,1.000000,1.000000,1.000000,1.000000,1.000000,1.000000,1.000000,1.000000,1.000000,1.000000,1.000000,1.000000,1.000000,1.000000,1.000000,1.000000,1.000000
1.000000,1.000000,1.000000,1.000000,1.000000,1.000000,1.000000,1.000000,1.000000,1.000000,1.000000,1.000000,1.000000,1.000000,1.000000,1.000000,1.000000,1.000000,1.000000,1.000000,1.000000,1.000000,1.000000,1.000000,1.000000,1.000000,1.000000,1.000000,1.000000,1.000000,0.177800,0.177700,0.177600,0.177600,0.177500,0.177600,0.177700,0.177800,0.177900,0.177800,0.177700,0.177600,0.177600,0.177600,0.177600,0.177600,0.177400,0.177200,0.177000,0.177000,0.177000,0.177000,0.177000,0.176800,0.176700,0.176600,0.176400,0.176400,0.176400,0.176400,0.176400,0.176500,0.176500,0.176400,0.176400,0.176400,0.176200,0.176200,0.176000,0.175900,0.175800,0.175800,0.175800,0.175700,0.175500,0.175300,0.175100,0.174900,0.174900,0.174800,0.174800,0.174700,0.174600,0.174500,0.174400,0.174400,0.174400,0.174300,0.174300,0.174300,0.174300,0.174300,0.174300,0.174300,0.174300,0.174300,0.174200,0.174100,0.174000,0.173800,0.173600,0.173500,0.173400,0.173400,0.173400,0.173300,0.173200,0.173200,0.173100,0.173100,0.173100,0.173000,0.173000,0.172900,0.172700,0.172600,0.172500,0.172500,0.172400,0.172300,0.172200,0.172100,0.172000,0.172000,0.171900,0.171800,0.171700,0.171600,0.171600,0.171600,0.171500,0.171400,0.171400,0.171300,0.171300,0.171300,0.171200,0.171100,0.171000,0.170900,0.170800,0.170700,0.170600,0.170500,0.170300,0.170200,0.170200,0.170100,0.170000,0.170000,0.169900,0.169900,0.169900,0.170000,0.170000,0.170000,0.170000,0.169800,0.169700,0.169500,0.169400,0.169300,0.169200,0.169200,0.169200,0.169200,0.169200,0.169100,0.169000,0.168800,0.168600,0.168600,0.168500,0.168500,0.168500,0.168500,0.168500,0.168500,0.168600,0.168700,0.168800,0.170300,1.000000,1.000000,1.000000,1.000000,1.000000,1.000000,1.000000,1.000000,1.000000,1.000000,1.000000,1.000000,1.000000,1.000000,1.000000,1.000000,1.000000,1.000000,1.000000,1.000000,1.000000,1.000000,1.000000,1.000000,1.000000,1.000000,1.000000,1.000000,1.000000,1.000000,1.000000,1.000000,1.000000,1.000000,1.000000,1.000000,1.000000,1.000000,1.000000,1.000000,1.000000,1.000000,1.000000,1.000000,1.000000,1.000000,1.000000,1.000000,1.000000,1.000000,1.000000,1.000000,1.000000,1.000000,1.000000,1.000000,1.000000,1.000000,1.000000,1.000000,1.000000,1.000000,1.000000,1.000000,1.000000,1.000000,1.000000,1.000000,1.000000,1.000000,1.000000,1.000000,1.000000,1.000000
1.000000,1.000000,1.000000,1.000000,1.000000,1.000000,1.000000,1.000000,1.000000,1.000000,1.000000,1.000000,1.000000,1.000000,1.000000,1.000000,1.000000,1.000000,1.000000,1.000000,1.000000,1.000000,1.000000,1.000000,1.000000,1.000000,1.000000,1.000000,1.000000,1.000000,1.000000,0.177700,0.177600,0.177600,0.177500,0.177600,0.177700,0.177900,0.177900,0.177800,0.177700,0.177600,0.177600,0.177600,0.177600,0.177500,0.177300,0.177200,0.177000,0.177000,0.177000,0.177000,0.177000,0.176900,0.176700,0.176600,0.176500,0.176400,0.176400,0.176400,0.176400,0.176300,0.176200,0.176200,0.176300,0.176300,0.176200,0.176200,0.176000,0.175900,0.175400,0.175200,0.175700,0.175700,0.175600,0.175400,0.175000,0.174900,0.174800,0.174800,0.174800,0.174700,0.174600,0.174600,0.174400,0.174400,0.174400,0.174300,0.174300,0.174300,0.174300,0.174300,0.174300,0.174300,0.174300,0.174300,0.174200,0.174200,0.174100,0.173800,0.173700,0.173500,0.173400,0.173400,0.173400,0.173300,0.173200,0.173100,0.173100,0.173000,0.173000,0.172900,0.172900,0.172800,0.172700,0.172600,0.172500,0.172500,0.172400,0.172300,0.172300,0.172100,0.172000,0.172000,0.171900,0.171800,0.171700,0.171600,0.171600,0.171500,0.171400,0.171400,0.171300,0.171300,0.171300,0.171300,0.171200,0.171100,0.171000,0.170900,0.170800,0.170700,0.170600,0.170500,0.170300,0.170300,0.170200,0.170100,0.170100,0.170000,0.170000,0.170000,0.170000,0.170000,0.170000,0.170000,0.170000,0.169800,0.169700,0.169500,0.169400,0.169300,0.169200,0.169200,0.169200,0.169200,0.169100,0.169000,0.169000,0.168700,0.168500,0.168500,0.168500,0.168500,0.168500,0.168500,0.168500,0.168500,0.168600,0.168700,0.168900,0.170200,1.000000,1.000000,1.000000,1.000000,1.000000,1.000000,1.000000,1.000000,1.000000,1.000000,1.000000,1.000000,1.000000,1.000000,1.000000,1.000000,1.000000,1.000000,1.000000,1.000000,1.000000,1.000000,1.000000,1.000000,1.000000,1.000000,1.000000,1.000000,1.000000,1.000000,1.000000,1.000000,1.000000,1.000000,1.000000,1.000000,1.000000,1.000000,1.000000,1.000000,1.000000,1.000000,1.000000,1.000000,1.000000,1.000000,1.000000,1.000000,1.000000,1.000000,1.000000,1.000000,1.000000,1.000000,1.000000,1.000000,1.000000,1.000000,1.000000,1.000000,1.000000,1.000000,1.000000,1.000000,1.000000,1.000000,1.000000,1.000000,1.000000,1.000000,1.000000,1.000000,1.000000,1.000000
1.000000,1.000000,1.000000,1.000000,1.000000,1.000000,1.000000,1.000000,1.000000,1.000000,1.000000,1.000000,1.000000,1.000000,1.000000,1.000000,1.000000,1.000000,1.000000,1.000000,1.000000,1.000000,1.000000,1.000000,1.000000,1.000000,1.000000,1.000000,1.000000,1.000000,1.000000,0.177700,0.177600,0.177500,0.177500,0.177600,0.177700,0.177900,0.177900,0.177800,0.177700,0.177600,0.177600,0.177600,0.177500,0.177500,0.177300,0.177200,0.177000,0.177000,0.177000,0.177000,0.177100,0.177000,0.176900,0.176800,0.176600,0.176500,0.176400,0.176400,0.176300,0.176200,0.176100,0.176100,0.176100,0.176200,0.176200,0.176200,0.176000,0.175400,0.175200,0.175100,0.175200,0.175500,0.175400,0.175100,0.174900,0.174800,0.174700,0.174700,0.174800,0.174800,0.174700,0.174600,0.174500,0.174400,0.174400,0.174400,0.174300,0.174200,0.174200,0.174200,0.174200,0.174200,0.174200,0.174200,0.174200,0.174200,0.174100,0.173900,0.173700,0.173400,0.173400,0.173300,0.173300,0.173300,0.173200,0.173100,0.173000,0.172900,0.172900,0.172800,0.172800,0.172700,0.172600,0.172600,0.172500,0.172500,0.172400,0.172300,0.172300,0.172200,0.172000,0.171900,0.171900,0.171700,0.171600,0.171500,0.171500,0.171400,0.171300,0.171300,0.171300,0.171300,0.171300,0.171300,0.171200,0.171000,0.170900,0.170800,0.170700,0.170700,0.170600,0.170600,0.170400,0.170300,0.170200,0.170200,0.170100,0.170100,0.170100,0.170100,0.170100,0.170100,0.170000,0.170000,0.169900,0.169700,0.169600,0.169400,0.169300,0.169300,0.169200,0.169200,0.169100,0.169100,0.169000,0.168900,0.168800,0.168500,0.168500,0.168500,0.168500,0.168500,0.168500,0.168500,0.168500,0.168500,0.168500,0.168600,0.168800,0.170100,1.000000,1.000000,1.000000,1.000000,1.000000,1.000000,1.000000,1.000000,1.000000,1.000000,1.000000,1.000000,1.000000,1.000000,1.000000,1.000000,1.000000,1.000000,1.000000,1.000000,1.000000,1.000000,1.000000,1.000000,1.000000,1.000000,1.000000,1.000000,1.000000,1.000000,1.000000,1.000000,1.000000,1.000000,1.000000,1.000000,1.000000,1.000000,1.000000,1.000000,1.000000,1.000000,1.000000,1.000000,1.000000,1.000000,1.000000,1.000000,1.000000,1.000000,1.000000,1.000000,1.000000,1.000000,1.000000,1.000000,1.000000,1.000000,1.000000,1.000000,1.000000,1.000000,1.000000,1.000000,1.000000,1.000000,1.000000,1.000000,1.000000,1.000000,1.000000,1.000000,1.000000,1.000000
1.000000,1.000000,1.000000,1.000000,1.000000,1.000000,1.000000,1.000000,1.000000,1.000000,1.000000,1.000000,1.000000,1.000000,1.000000,1.000000,1.000000,1.000000,1.000000,1.000000,1.000000,1.000000,1.000000,1.000000,1.000000,1.000000,1.000000,1.000000,1.000000,1.000000,1.000000,0.177700,0.177700,0.177600,0.177500,0.177600,0.177600,0.177900,0.177900,0.177800,0.177700,0.177600,0.177600,0.177600,0.177400,0.177400,0.177200,0.177100,0.177000,0.177000,0.177100,0.177100,0.177100,0.177100,0.177000,0.176900,0.176600,0.176500,0.176400,0.176300,0.176200,0.176000,0.175900,0.175900,0.175900,0.175900,0.176000,0.176000,0.175900,0.175300,0.175200,0.175100,0.175100,0.175100,0.175000,0.174900,0.174800,0.174700,0.174700,0.174700,0.174800,0.174800,0.174900,0.174800,0.174600,0.174500,0.174400,0.174400,0.174300,0.174200,0.174100,0.174100,0.174100,0.174100,0.174200,0.174200,0.174200,0.174100,0.174100,0.173900,0.173800,0.173400,0.173300,0.173300,0.173300,0.173300,0.173100,0.173000,0.172900,0.172800,0.172800,0.172700,0.172600,0.172600,0.172500,0.172500,0.172500,0.172400,0.172400,0.172400,0.172300,0.172200,0.172100,0.172000,0.171800,0.171600,0.171500,0.171400,0.171300,0.171300,0.171200,0.171200,0.171200,0.171300,0.171300,0.171200,0.171100,0.171000,0.170800,0.170800,0.170600,0.170600,0.170600,0.170500,0.170400,0.170400,0.170300,0.170200,0.170200,0.170100,0.170100,0.170100,0.170100,0.170100,0.170000,0.169900,0.169800,0.169600,0.169500,0.169300,0.169300,0.169300,0.169200,0.169200,0.169100,0.169100,0.169000,0.168800,0.168700,0.168500,0.168500,0.168500,0.168500,0.168500,0.168500,0.168500,0.168500,0.168500,0.168500,0.168500,0.168500,0.168800,1.000000,1.000000,1.000000,1.000000,1.000000,1.000000,1.000000,1.000000,1.000000,1.000000,1.000000,1.000000,1.000000,1.000000,1.000000,1.000000,1.000000,1.000000,1.000000,1.000000,1.000000,1.000000,1.000000,1.000000,1.000000,1.000000,1.000000,1.000000,1.000000,1.000000,1.000000,1.000000,1.000000,1.000000,1.000000,1.000000,1.000000,1.000000,1.000000,1.000000,1.000000,1.000000,1.000000,1.000000,1.000000,1.000000,1.000000,1.000000,1.000000,1.000000,1.000000,1.000000,1.000000,1.000000,1.000000,1.000000,1.000000,1.000000,1.000000,1.000000,1.000000,1.000000,1.000000,1.000000,1.000000,1.000000,1.000000,1.000000,1.000000,1.000000,1.000000,1.000000,1.000000,1.000000
1.000000,1.000000,1.000000,1.000000,1.000000,1.000000,1.000000,1.000000,1.000000,1.000000,1.000000,1.000000,1.000000,1.000000,1.000000,1.000000,1.000000,1.000000,1.000000,1.000000,1.000000,1.000000,1.000000,1.000000,1.000000,1.000000,1.000000,1.000000,1.000000,1.000000,1.000000,0.177800,0.177700,0.177700,0.177600,0.177600,0.177600,0.177700,0.177800,0.177800,0.177700,0.177600,0.177600,0.177500,0.177400,0.177300,0.177200,0.177100,0.177000,0.177000,0.177100,0.177100,0.177100,0.177100,0.177000,0.176800,0.176600,0.176500,0.176300,0.176200,0.176200,0.176000,0.175900,0.175800,0.175800,0.175800,0.175800,0.175800,0.175600,0.175300,0.175200,0.175100,0.175100,0.175000,0.174900,0.174900,0.174800,0.174700,0.174600,0.174600,0.174700,0.174800,0.174900,0.174900,0.174600,0.174500,0.174400,0.174300,0.174200,0.173900,0.173800,0.173800,0.173900,0.174000,0.174000,0.174000,0.174000,0.174000,0.174000,0.173800,0.173700,0.173100,0.173100,0.173100,0.173100,0.173100,0.173000,0.173000,0.172900,0.172700,0.172600,0.172600,0.172500,0.172500,0.172500,0.172400,0.172400,0.172400,0.172400,0.172400,0.172300,0.172200,0.172100,0.172000,0.171800,0.171600,0.171500,0.171300,0.171300,0.171200,0.171200,0.171200,0.171200,0.171200,0.171200,0.171200,0.171100,0.170900,0.170800,0.170700,0.170600,0.170600,0.170500,0.170500,0.170400,0.170400,0.170300,0.170200,0.170200,0.170100,0.170100,0.170100,0.170100,0.170000,0.169900,0.169800,0.169600,0.169400,0.169300,0.169200,0.169200,0.169200,0.169200,0.169200,0.169100,0.169100,0.169000,0.168800,0.168700,0.168600,0.168500,0.168500,0.168500,0.168500,0.168500,0.168500,0.168400,0.168400,0.168400,0.168400,0.168400,0.168500,1.000000,1.000000,1.000000,1.000000,1.000000,1.000000,1.000000,1.000000,1.000000,1.000000,1.000000,1.000000,1.000000,1.000000,1.000000,1.000000,1.000000,1.000000,1.000000,1.000000,1.000000,1.000000,1.000000,1.000000,1.000000,1.000000,1.000000,1.000000,1.000000,1.000000,1.000000,1.000000,1.000000,1.000000,1.000000,1.000000,1.000000,1.000000,1.000000,1.000000,1.000000,1.000000,1.000000,1.000000,1.000000,1.000000,1.000000,1.000000,1.000000,1.000000,1.000000,1.000000,1.000000,1.000000,1.000000,1.000000,1.000000,1.000000,1.000000,1.000000,1.000000,1.000000,1.000000,1.000000,1.000000,1.000000,1.000000,1.000000,1.000000,1.000000,1.000000,1.000000,1.000000,1.000000
