1.000000,1.000000,1.000000,1.000000,1.000000,0.743600,1.000000,1.000000,1.000000,0.761200,0.761200,0.761200,1.000000,1.000000,1.000000,1.000000,1.000000,1.000000,1.000000,1.000000,1.000000,1.000000,1.000000,1.000000,0.759100,0.759200,0.759200,1.000000,1.000000,1.000000,1.000000,1.000000,1.000000,1.000000,1.000000,1.000000,1.000000,0.549500,0.551300,0.551300,1.000000,1.000000,0.549700,0.549700,0.550200,0.551000,0.551200,0.551200,0.551200,0.551200,0.550800,0.550800,0.548800,0.548700,0.548700,0.548700,0.549400,0.549300,0.548800,0.548800,0.548800,1.000000,1.000000,0.546900,0.546900,0.546800,0.546800,0.546800,0.546600,0.547500,0.547400,0.546800,0.544800,0.544800,1.000000,1.000000,0.544800,0.544700,0.544400,0.544300,0.544200,0.544100,0.543900,0.543800,0.543800,0.543800,0.543900,0.544000,0.545400,0.545400,0.544400,0.543200,0.543300,0.543300,0.543400,0.543400,0.543100,0.542100,0.541000,0.541000,0.541000,0.541000,0.541100,0.541800,0.541700,0.539700,0.539600,1.000000,0.499000,1.000000,0.499000,0.499200,0.499300,0.499400,1.000000,0.293100,0.293000,0.292900,0.292800,0.292700,0.292600,0.292600,0.292500,0.292400,0.292300,0.292200,0.292200,0.292100,0.292000,0.291900,0.291800,0.291600,0.291500,0.291300,0.291200,0.291100,0.291000,0.291000,0.290900,0.290900,0.290900,0.290900,0.290900,0.290800,0.290800,0.290700,0.290600,0.290500,0.290300,0.289800,0.289500,0.289600,0.290000,0.289900,0.289500,0.289400,0.289200,0.289000,0.288900,0.288600,0.288600,0.288600,0.288600,0.288600,0.288400,0.288000,0.287900,0.287800,0.287700,0.287400,0.287300,0.287200,0.287100,0.287000,0.287000,0.286900,0.286900,0.286800,0.286200,0.286200,0.286200,0.286200,0.286200,0.286000,0.285800,0.285500,0.285400,0.285300,0.285100,0.285000,0.284900,0.284900,0.284800,0.284800,0.284500,0.283800,1.000000,1.000000,1.000000,1.000000,1.000000,0.283300,1.000000,1.000000,1.000000,1.000000,1.000000,1.000000,1.000000,1.000000,1.000000,0.487600,1.000000,0.484400,0.484400,0.484700,1.000000,0.448200,1.000000,1.000000,1.000000,1.000000,1.000000,1.000000,1.000000,1.000000,1.000000,1.000000,1.000000,1.000000,1.000000,1.000000,1.000000,1.000000,1.000000,1.000000,1.000000,1.000000,1.000000,1.000000,1.000000,1.000000,1.000000,1.000000,1.000000,1.000000,1.000000,1.000000,1.000000,1.000000,1.000000,1.000000,1.000000,1.000000,1.000000,1.000000
1.000000,1.000000,1.000000,1.000000,0.755200,1.000000,1.000000,1.000000,1.000000,1.000000,0.761200,1.000000,1.000000,1.000000,1.000000,1.000000,1.000000,1.000000,1.000000,1.000000,1.000000,1.000000,1.000000,1.000000,0.756900,0.759200,0.759200,1.000000,1.000000,1.000000,1.000000,1.000000,1.000000,1.000000,1.000000,1.000000,0.550900,0.551000,0.551300,0.551200,0.551100,1.000000,0.549800,0.549800,0.551100,0.551100,0.550000,0.549100,0.550200,0.550800,1.000000,1.000000,0.548900,0.548700,0.548700,0.548600,0.548800,0.549200,1.000000,1.000000,1.000000,1.000000,1.000000,0.547700,0.547800,0.547900,0.548000,0.548100,0.547500,0.547500,0.547500,1.000000,0.547400,0.547400,0.544800,0.544800,0.544700,0.544600,0.544500,0.544400,0.544200,0.544100,0.544000,0.543700,0.543600,0.543600,0.543700,0.543900,0.544100,0.544200,0.544300,0.543200,0.543200,0.543200,0.543300,0.543400,0.543000,0.540800,0.540800,0.540800,0.540800,0.540800,0.540900,0.541100,0.539700,0.539700,0.539600,1.000000,0.499000,0.499000,0.498800,1.000000,0.498600,1.000000,1.000000,0.293000,0.292900,0.292800,0.292800,0.292700,0.292600,0.292500,0.292400,0.292400,0.292300,0.292200,0.292200,0.292000,0.292000,0.291900,0.291700,0.291600,0.291500,0.291300,0.291200,0.291000,0.290900,0.290900,0.290700,0.290700,0.290600,0.290600,0.290700,0.290700,0.290600,0.290600,0.290500,0.290400,0.289500,0.289300,0.289300,0.289200,0.289800,0.289700,0.289500,0.289300,0.289200,0.289000,0.288600,0.288500,0.288500,0.288500,0.288500,0.288500,0.287700,0.287700,0.287700,0.287600,0.287500,0.287200,0.287000,0.287000,0.286900,0.286900,0.286900,0.286900,0.286800,0.286700,0.286000,0.286100,0.286100,0.286100,0.286000,0.285900,0.285700,0.285400,0.285300,0.285200,0.285000,0.284900,0.284800,0.284800,0.284700,0.284600,0.283700,0.283700,0.283700,0.283700,0.283700,0.283600,0.283500,0.283300,0.283100,0.282700,1.000000,1.000000,1.000000,1.000000,0.487600,0.487600,0.487600,0.485600,0.484200,0.484200,0.484300,1.000000,1.000000,1.000000,1.000000,1.000000,1.000000,1.000000,1.000000,1.000000,1.000000,1.000000,1.000000,1.000000,1.000000,1.000000,1.000000,1.000000,1.000000,1.000000,1.000000,1.000000,1.000000,1.000000,1.000000,1.000000,1.000000,1.000000,1.000000,1.000000,1.000000,1.000000,1.000000,1.000000,1.000000,1.000000,1.000000,1.000000,1.000000,1.000000,1.000000,1.000000
1.000000,1.000000,1.000000,1.000000,1.000000,1.000000,1.000000,1.000000,1.000000,1.000000,1.000000,1.000000,1.000000,1.000000,1.000000,1.000000,1.000000,1.000000,1.000000,1.000000,1.000000,1.000000,1.000000,1.000000,0.756900,0.759200,0.759200,1.000000,1.000000,1.000000,1.000000,1.000000,1.000000,1.000000,1.000000,1.000000,0.550900,0.551300,0.551300,1.000000,1.000000,1.000000,0.550500,0.550500,0.551200,0.551200,1.000000,0.549100,1.000000,1.000000,0.550300,0.550100,1.000000,0.548700,0.548600,0.548200,0.548300,0.548800,1.000000,1.000000,1.000000,0.547700,1.000000,0.547600,0.547800,0.547900,0.548000,0.548300,0.547600,0.547500,0.547500,0.547500,0.547400,0.547200,0.544800,0.544800,0.544700,0.544600,0.544600,0.544500,0.544500,0.544700,0.544800,0.543700,0.543500,0.543500,0.543600,0.543900,0.544100,0.544100,0.543200,0.543100,0.543100,0.543100,0.543000,0.543100,0.542000,0.540800,0.540800,0.540700,0.540700,0.540800,0.540800,0.539800,0.539700,0.539700,0.539600,0.539600,0.499000,0.499000,0.498800,0.498500,1.000000,1.000000,1.000000,0.292900,0.292800,0.292800,0.292700,0.292600,0.292500,0.292400,0.292300,0.292300,0.292300,0.292200,0.292100,0.292000,0.291900,0.291800,0.291700,0.291600,0.291500,0.291300,0.291100,0.291000,0.290900,0.290700,0.290600,0.290600,0.290500,0.290400,0.290500,0.290600,0.290500,0.290500,0.290300,0.290000,0.289300,0.289200,0.289100,0.289000,0.289300,0.289600,0.289400,0.289300,0.289200,0.288400,0.288300,0.288100,0.288200,0.288400,0.287400,0.287500,0.287600,0.287600,0.287600,0.287400,0.287400,0.287000,0.286900,0.286800,0.286800,0.286800,0.286700,0.286700,0.286600,0.286100,0.286000,0.286000,0.286000,0.286000,0.286000,0.285800,0.285700,0.285400,0.285300,0.285200,0.285000,0.284900,0.284700,0.284700,0.284600,0.284000,0.283700,0.283600,0.283700,0.283700,0.283600,0.283600,0.283400,0.283300,0.282700,0.282600,0.282600,1.000000,1.000000,1.000000,0.487500,0.487000,0.486700,0.484100,0.484100,0.484200,0.484200,0.484400,0.484400,1.000000,1.000000,1.000000,1.000000,1.000000,1.000000,1.000000,1.000000,1.000000,1.000000,1.000000,1.000000,1.000000,1.000000,1.000000,1.000000,1.000000,1.000000,1.000000,1.000000,1.000000,1.000000,1.000000,1.000000,1.000000,1.000000,1.000000,1.000000,1.000000,1.000000,1.000000,1.000000,1.000000,1.000000,1.000000,1.000000,1.000000,1.000000,1.000000
1.000000,1.000000,1.000000,1.000000,1.000000,1.000000,1.000000,1.000000,1.000000,1.000000,1.000000,1.000000,1.000000,1.000000,1.000000,1.000000,1.000000,1.000000,1.000000,1.000000,1.000000,1.000000,1.000000,1.000000,1.000000,1.000000,1.000000,1.000000,1.000000,1.000000,1.000000,1.000000,1.000000,1.000000,1.000000,1.000000,1.000000,0.551400,0.551300,1.000000,1.000000,1.000000,0.550600,0.550600,0.552000,0.551400,0.550000,0.549100,0.549000,0.549100,0.549100,0.549700,0.549300,0.547900,0.547900,0.548000,0.548000,0.547900,1.000000,1.000000,0.547600,0.547600,0.547500,0.546200,0.546200,0.547800,0.547800,0.548600,0.548600,1.000000,0.547600,0.547500,0.547400,0.547200,0.547000,0.546800,0.544700,0.544600,0.544700,0.545000,0.545000,0.544900,0.544900,0.543800,0.543400,0.543400,0.543400,0.543800,0.544000,0.543300,0.543100,0.543000,0.542900,0.542800,0.541500,0.541700,0.541000,0.540800,0.540800,0.540600,0.540600,0.540100,0.539900,0.539900,0.539700,0.539700,0.539600,0.539600,0.499100,0.499000,0.498800,0.498100,0.498200,1.000000,1.000000,0.292700,0.292700,0.292600,0.292600,0.292500,0.291800,0.291800,0.291800,0.292000,0.292100,0.292000,0.292000,0.291800,0.291700,0.291700,0.291600,0.291500,0.291500,0.291000,0.290900,0.290800,0.290700,0.290600,0.290600,0.290500,0.290400,0.290200,0.290000,0.290400,0.290300,0.290200,0.289900,0.289800,0.289200,0.289100,0.289000,0.288900,0.289000,0.289400,0.289300,0.289000,0.288800,0.288300,0.288200,0.287700,0.287500,0.287400,0.287400,0.287500,0.287500,0.287600,0.287500,0.287400,0.287200,0.286800,0.286700,0.286700,0.286600,0.286600,0.286400,0.286300,0.286000,0.286000,0.285900,0.285900,0.285900,0.285900,0.285800,0.285700,0.285600,0.285400,0.285300,0.285200,0.284900,0.284800,0.284700,0.284600,0.284400,0.283700,0.283600,0.283500,0.283500,0.283500,0.283500,0.283500,0.283400,0.283200,0.282600,0.282500,0.282500,1.000000,1.000000,1.000000,1.000000,0.485800,0.485700,0.484000,0.484100,0.484100,0.484200,0.484400,0.484400,1.000000,1.000000,1.000000,1.000000,1.000000,1.000000,1.000000,1.000000,1.000000,1.000000,1.000000,1.000000,1.000000,1.000000,1.000000,1.000000,1.000000,1.000000,1.000000,1.000000,1.000000,1.000000,1.000000,1.000000,1.000000,1.000000,1.000000,1.000000,1.000000,1.000000,1.000000,1.000000,1.000000,1.000000,0.484400,0.483300,0.477500,0.475200,1.000000
1.000000,1.000000,1.000000,1.000000,1.000000,1.000000,1.000000,1.000000,1.000000,1.000000,1.000000,1.000000,1.000000,1.000000,1.000000,1.000000,1.000000,1.000000,1.000000,1.000000,1.000000,1.000000,1.000000,1.000000,1.000000,1.000000,1.000000,1.000000,1.000000,1.000000,1.000000,1.000000,1.000000,1.000000,1.000000,1.000000,1.000000,1.000000,1.000000,1.000000,1.000000,1.000000,1.000000,1.000000,1.000000,0.552100,0.549900,0.549000,0.549000,0.549000,0.549100,0.549300,0.547800,0.547800,0.547900,0.547900,0.548000,0.548000,1.000000,1.000000,0.547600,0.547500,0.547500,0.546100,0.546200,0.546200,0.547600,0.547600,0.547600,0.547600,0.547600,0.547500,0.547400,0.547200,0.547000,0.546800,0.544600,0.544700,0.544700,0.545100,0.545100,0.545000,0.544200,0.543600,0.543100,0.543100,0.543000,0.543600,0.543600,0.543200,0.542900,0.542800,0.541600,0.541500,0.541500,0.541400,0.541100,0.540900,0.540700,0.540500,0.540200,0.540000,0.540000,0.539900,0.539900,0.539800,0.539700,0.539700,0.499100,0.499100,0.499000,0.498000,1.000000,1.000000,0.292600,0.292600,0.292600,0.292600,0.292500,0.292300,0.291600,0.291600,0.291600,0.291600,0.292000,0.291900,0.291800,0.291700,0.291600,0.291600,0.291500,0.291500,0.291400,0.291000,0.290800,0.290700,0.290600,0.290600,0.290500,0.290500,0.290400,0.288900,0.288900,0.289300,0.289700,0.289800,0.289700,0.289600,0.289100,0.288900,0.288800,0.288500,0.288400,0.288300,0.288400,0.288400,0.288400,0.288300,0.288100,0.287400,0.287400,0.287300,0.287300,0.287400,0.287400,0.287500,0.287400,0.287200,0.287000,0.286800,0.286700,0.286700,0.286600,0.286500,0.286300,0.286200,0.286000,0.286000,0.285900,0.285900,0.285800,0.285800,0.285800,0.285700,0.285600,0.285500,0.285400,0.285200,0.284900,0.284800,0.284600,0.284500,0.284400,0.284200,0.283500,0.283400,0.283400,0.283400,0.283400,0.283400,0.283300,0.283200,0.282600,0.282500,0.282500,1.000000,1.000000,1.000000,1.000000,1.000000,0.484000,0.482700,0.482600,0.482600,0.482600,0.484200,0.484300,0.484500,0.484600,0.483400,0.483400,0.481900,1.000000,1.000000,0.482100,1.000000,0.482600,0.482700,1.000000,1.000000,1.000000,1.000000,1.000000,0.485100,0.485100,0.483000,1.000000,1.000000,1.000000,1.000000,1.000000,1.000000,1.000000,1.000000,1.000000,1.000000,1.000000,0.480700,1.000000,1.000000,1.000000,0.483300,0.480900,0.476000,1.000000,0.475200
1.000000,1.000000,1.000000,1.000000,1.000000,1.000000,1.000000,1.000000,1.000000,1.000000,1.000000,1.000000,1.000000,1.000000,1.000000,1.000000,1.000000,1.000000,1.000000,1.000000,0.760800,0.758600,0.758700,1.000000,0.756700,1.000000,1.000000,1.000000,1.000000,1.000000,1.000000,1.000000,1.000000,1.000000,1.000000,1.000000,1.000000,1.000000,1.000000,1.000000,1.000000,1.000000,1.000000,1.000000,1.000000,0.549800,0.549400,0.548900,0.548800,0.548700,0.546600,0.547800,0.546500,0.547800,0.547800,0.547900,0.548000,0.548000,0.548000,0.547800,0.547500,0.547400,0.546100,0.545000,0.545000,0.546200,1.000000,0.547500,0.547600,0.547600,0.547600,0.547500,0.547400,0.547100,0.546900,0.545600,0.544700,0.544800,0.545200,0.545200,0.545100,0.545100,0.543900,0.543300,0.543100,0.543000,0.542900,0.543600,0.543600,0.543400,0.543000,0.542500,0.541600,0.541600,0.541500,0.541400,0.541400,0.541300,0.540800,0.540100,0.540000,0.540000,0.540000,0.540000,0.540000,0.539900,0.539800,0.539800,1.000000,0.499100,0.499100,1.000000,1.000000,0.292400,0.292500,0.292500,0.292500,0.292300,0.291600,0.291500,0.291400,0.291400,0.291400,0.291400,0.291600,0.291600,0.291600,0.291500,0.291500,0.291400,0.291000,0.291000,0.291100,0.291000,0.290800,0.290800,0.290600,0.290600,0.290500,0.290400,0.289600,0.288800,0.288800,0.288800,0.289500,0.289600,0.289600,0.289500,0.289300,0.288700,0.288600,0.288400,0.288300,0.288300,0.288300,0.288300,0.288400,0.288400,0.288300,0.287400,0.287300,0.287300,0.287200,0.287300,0.287500,0.287500,0.287400,0.287200,0.287000,0.286800,0.286800,0.286700,0.286600,0.286400,0.286300,0.286200,0.286000,0.285900,0.285900,0.285800,0.285800,0.285700,0.285700,0.285600,0.285600,0.285500,0.285400,0.285300,0.284900,0.284800,0.284600,0.284500,0.284300,0.284300,0.283600,0.283300,0.283300,0.283300,0.283300,0.283400,0.283300,0.283200,0.283000,0.282500,0.282500,1.000000,1.000000,1.000000,1.000000,1.000000,1.000000,0.482700,0.482600,0.482600,0.482600,0.484200,0.484300,0.484500,0.484600,0.484600,0.483500,0.481900,0.482000,0.482000,0.482100,0.482200,0.482700,0.482700,0.482800,0.482800,1.000000,1.000000,0.485000,0.485000,0.483000,0.482000,1.000000,1.000000,1.000000,1.000000,1.000000,1.000000,1.000000,1.000000,1.000000,1.000000,1.000000,0.481600,0.480600,0.480600,0.480600,0.479200,0.478600,0.475800,0.475500,0.475300
1.000000,1.000000,1.000000,1.000000,1.000000,1.000000,1.000000,1.000000,1.000000,1.000000,1.000000,1.000000,1.000000,1.000000,1.000000,1.000000,1.000000,1.000000,1.000000,0.760800,1.000000,0.762500,0.762600,1.000000,0.756700,0.755400,0.755400,1.000000,1.000000,1.000000,1.000000,1.000000,1.000000,1.000000,1.000000,1.000000,1.000000,0.548900,0.548900,1.000000,1.000000,1.000000,1.000000,1.000000,1.000000,0.547900,0.548800,0.548600,0.548500,0.546600,1.000000,0.546500,0.546500,0.546500,0.547900,0.549300,0.549300,0.548100,0.548100,0.548100,0.547300,1.000000,0.546200,0.545000,0.545900,0.547600,0.547400,0.546700,0.546200,0.547600,0.547600,0.547600,0.547400,0.546900,0.545800,0.545600,0.545400,0.545400,0.545200,0.545200,0.545000,0.545000,0.544000,0.543200,0.543000,0.542700,0.542700,0.543300,0.543400,0.543400,0.543300,0.542800,0.541700,0.541600,0.541600,0.541500,0.541500,0.541500,0.541700,0.540900,0.540000,0.540000,0.540100,0.540400,0.540200,0.540100,0.540000,0.540000,1.000000,0.499100,0.499100,1.000000,0.292300,0.291700,0.292300,0.292400,0.292400,0.291400,0.291400,0.291400,0.291300,0.291300,0.291300,0.291400,0.291500,0.291500,0.291500,0.291400,0.291300,0.291100,0.290800,0.290900,0.290900,0.290900,0.290900,0.290800,0.290600,0.290500,0.289500,0.288800,0.288800,0.288700,0.288600,0.288700,0.288800,0.289000,0.289300,0.289400,0.288500,0.288400,0.288400,0.288300,0.288200,0.288200,0.288200,0.288200,0.288300,0.288400,0.288300,0.287400,0.287300,0.287100,0.287000,0.287000,0.287600,0.287500,0.287400,0.287200,0.287100,0.287000,0.286900,0.286800,0.286600,0.286400,0.286300,0.286200,0.286000,0.285900,0.285900,0.285800,0.285800,0.285700,0.285600,0.285500,0.285500,0.285400,0.285400,0.285300,0.284800,0.284700,0.284500,0.284400,0.284300,0.284300,0.284200,0.283300,0.283300,0.283300,0.283300,0.283400,0.283300,0.283200,0.283100,0.282500,0.281400,0.282400,1.000000,0.358300,0.358300,1.000000,1.000000,0.482600,0.482600,0.482600,0.482600,0.483800,0.483800,0.484600,0.484600,0.483500,0.483500,0.482000,0.482000,0.482000,0.482100,0.483100,0.483800,0.482700,0.482800,0.482800,0.482800,0.485000,0.485000,0.485000,0.482200,0.482200,0.482000,1.000000,1.000000,1.000000,1.000000,1.000000,1.000000,1.000000,1.000000,1.000000,1.000000,0.480600,0.480600,0.480600,0.480600,0.479000,0.477500,0.476000,0.475900,0.475800
1.000000,1.000000,1.000000,1.000000,1.000000,1.000000,1.000000,1.000000,1.000000,1.000000,1.000000,1.000000,1.000000,1.000000,1.000000,1.000000,1.000000,1.000000,1.000000,1.000000,0.762600,0.762600,0.762700,1.000000,0.756600,1.000000,0.753000,1.000000,1.000000,1.000000,1.000000,1.000000,1.000000,1.000000,1.000000,1.000000,1.000000,0.548900,0.548900,0.550400,1.000000,1.000000,1.000000,1.000000,0.546900,0.547900,0.548000,0.548200,0.548400,0.546600,0.546500,0.546500,0.546500,0.546500,0.548200,0.549300,0.549300,0.548200,0.548200,0.548200,0.547100,1.000000,1.000000,0.546000,0.547700,0.547600,0.547400,0.546100,0.546000,0.547700,0.547700,0.547600,0.547500,0.546900,0.546800,0.545600,0.545400,0.545400,0.545200,0.545100,0.545000,0.544900,0.544800,0.543200,0.543000,0.542600,0.542500,0.542600,0.543300,0.543300,0.543300,0.543200,0.541700,0.541700,0.541600,0.541600,0.541600,0.541600,0.541900,0.541300,0.540900,0.540600,0.540500,0.540500,0.540300,0.540200,0.538900,0.538900,1.000000,0.499100,0.499100,1.000000,0.291300,0.291300,0.291400,0.291700,0.291400,0.291400,0.291300,0.291300,0.291300,0.291300,0.291300,0.291300,0.291500,0.291500,0.291500,0.291100,0.290900,0.290800,0.290700,0.290700,0.290800,0.290900,0.290900,0.290800,0.290600,0.290500,0.289000,0.288800,0.288800,0.288600,0.288600,0.288600,0.288800,0.288800,0.288900,0.288800,0.288500,0.288400,0.288400,0.288200,0.288200,0.288100,0.288200,0.288200,0.288300,0.288400,0.288300,0.287700,0.287400,0.287100,0.287000,0.287000,0.287500,0.287500,0.287400,0.287200,0.287100,0.287000,0.286900,0.286800,0.286500,0.286400,0.286300,0.286200,0.286000,0.285900,0.285900,0.285800,0.285800,0.285700,0.285600,0.285400,0.285400,0.285400,0.285300,0.285000,0.284700,0.284600,0.284400,0.284400,0.284300,0.284200,0.284200,0.283400,0.283400,0.283400,0.283400,0.283400,0.283300,0.283300,0.282600,0.281400,0.281400,0.282400,0.358300,0.358400,1.000000,1.000000,1.000000,0.482600,0.482600,0.482600,0.482600,0.483600,0.483600,0.483600,0.483500,0.483500,0.483500,0.482000,0.482000,0.482000,0.483100,0.483900,0.483800,0.482800,0.482800,0.482800,0.482800,0.482800,0.482400,0.482300,0.482300,0.482200,0.482200,0.482000,1.000000,1.000000,1.000000,1.000000,1.000000,1.000000,1.000000,1.000000,1.000000,0.480400,0.479400,0.479400,0.479300,0.477500,0.477400,0.476200,0.476200,0.476200
1.000000,1.000000,1.000000,1.000000,1.000000,1.000000,1.000000,1.000000,1.000000,1.000000,1.000000,1.000000,1.000000,1.000000,1.000000,1.000000,1.000000,1.000000,1.000000,1.000000,1.000000,0.762600,1.000000,1.000000,0.755300,1.000000,0.752900,1.000000,1.000000,1.000000,1.000000,1.000000,1.000000,1.000000,1.000000,1.000000,1.000000,0.547800,0.548900,0.548900,1.000000,1.000000,1.000000,1.000000,0.545700,0.547200,0.548000,0.548100,0.548200,0.546700,0.546500,0.546400,0.546500,0.548000,0.548200,0.548200,0.548200,0.547100,0.547100,0.547100,0.546900,0.546600,0.546500,0.547800,0.548100,0.548100,0.547600,0.546400,0.546000,0.546000,0.547800,0.547800,0.547900,0.548000,0.548200,0.548200,0.546800,0.545300,0.545200,0.545100,0.544900,0.544800,0.544800,0.543300,0.543000,0.542400,0.542400,0.542300,0.543300,0.543200,0.543200,0.543100,0.541800,0.541800,0.541600,0.541600,0.541600,0.541700,0.541900,0.542000,0.541000,0.540700,0.540600,0.540500,0.539000,0.539000,0.537400,0.537400,1.000000,0.498400,0.497500,1.000000,0.291300,0.291300,0.291300,0.291300,0.291300,0.291200,0.291200,0.291200,0.291200,0.291300,0.291300,0.291400,0.291500,0.291500,0.291200,0.290900,0.290800,0.290700,0.290700,0.290700,0.290700,0.290800,0.290800,0.290800,0.290400,0.290300,0.289000,0.289000,0.288900,0.288700,0.288600,0.288600,0.288700,0.288800,0.288800,0.288700,0.288500,0.288400,0.288400,0.288200,0.288200,0.288100,0.288100,0.288200,0.288200,0.288300,0.288300,0.287700,0.287500,0.287000,0.287000,0.287000,0.287300,0.287400,0.287300,0.287000,0.286900,0.286600,0.286500,0.286400,0.286300,0.286300,0.286200,0.286200,0.286000,0.286000,0.285900,0.285800,0.285800,0.285600,0.285400,0.284800,0.284700,0.284700,0.284700,0.284700,0.284600,0.284500,0.284400,0.284400,0.284200,0.284000,0.283800,0.283500,0.283500,0.283500,0.283400,0.283400,0.283400,0.283300,0.281500,0.281400,0.281400,1.000000,0.358500,0.359300,0.360400,1.000000,1.000000,0.482500,0.482600,0.482500,0.482500,0.483600,0.483500,0.483500,0.483500,0.483500,0.483500,0.483300,0.483200,0.483300,0.483800,0.483900,0.483800,0.482900,0.481400,0.481400,0.481500,0.481600,0.481600,0.481700,0.482300,0.482300,0.482300,0.482300,1.000000,1.000000,1.000000,1.000000,1.000000,1.000000,1.000000,1.000000,1.000000,0.477200,0.476200,0.476200,0.476300,0.477300,0.477300,0.476300,0.476200,0.476200
1.000000,1.000000,1.000000,1.000000,1.000000,1.000000,1.000000,1.000000,1.000000,1.000000,1.000000,1.000000,1.000000,1.000000,1.000000,1.000000,1.000000,1.000000,1.000000,1.000000,1.000000,1.000000,1.000000,1.000000,1.000000,0.752900,0.752900,0.752900,1.000000,1.000000,1.000000,1.000000,1.000000,1.000000,1.000000,1.000000,1.000000,0.547900,0.548900,0.548900,1.000000,1.000000,1.000000,1.000000,1.000000,0.547600,0.548000,0.548100,0.548200,0.547600,0.546400,0.547700,0.547900,0.548100,0.548200,0.548000,0.547100,0.547100,0.547100,0.547100,0.547000,0.546900,1.000000,0.546700,0.547900,0.548100,0.547300,0.547300,0.545900,0.545900,0.545900,0.547900,0.548000,0.548000,0.548200,0.548200,0.546800,0.545300,0.543000,0.543600,0.543600,0.543600,0.543600,0.543300,0.543000,0.542200,0.542200,0.542000,0.541900,0.543000,0.542800,0.542500,0.542000,0.541900,0.541600,0.541600,0.541600,0.541700,0.541900,0.541900,0.540900,0.540700,0.540700,0.540600,0.539000,0.539000,0.537400,0.537400,1.000000,0.498200,0.497400,0.497400,0.291200,0.291200,0.291200,0.291200,0.291200,0.291100,0.291100,0.291200,0.291200,0.291300,0.291400,0.291500,0.291600,0.291600,0.291000,0.290900,0.290800,0.290800,0.290700,0.290600,0.290600,0.290600,0.290600,0.290100,0.289900,0.289800,0.289200,0.289100,0.289000,0.288700,0.288700,0.288600,0.288700,0.288800,0.288800,0.288700,0.288500,0.288400,0.288400,0.288200,0.288200,0.288100,0.288100,0.288200,0.288200,0.288300,0.287600,0.287300,0.287100,0.287000,0.287000,0.287100,0.287200,0.287300,0.287200,0.286800,0.286600,0.286400,0.286400,0.286300,0.286000,0.286200,0.286200,0.286200,0.286000,0.286000,0.285900,0.285800,0.285700,0.285400,0.284900,0.284800,0.284700,0.284700,0.284700,0.284700,0.284600,0.284500,0.284400,0.284400,0.283700,0.283700,0.283600,0.283600,0.283600,0.283500,0.283500,0.283400,0.283300,0.283300,0.281600,0.281500,0.281500,1.000000,1.000000,0.360300,1.000000,1.000000,1.000000,0.482500,0.482400,0.482400,0.482400,0.483500,0.483400,0.483300,0.483300,0.483400,0.483500,0.483400,0.483300,0.483300,0.483500,0.483600,0.483500,0.482100,0.481300,0.481300,0.481400,0.481600,0.481600,0.481500,0.481500,0.482400,0.482400,0.482500,1.000000,1.000000,1.000000,1.000000,1.000000,1.000000,1.000000,1.000000,1.000000,0.477200,0.476300,0.476300,0.476300,0.476400,0.477300,0.477200,0.477000,0.476200
1.000000,1.000000,1.000000,1.000000,1.000000,0.766400,0.766400,0.768800,1.000000,1.000000,1.000000,1.000000,1.000000,1.000000,1.000000,0.762600,1.000000,1.000000,1.000000,1.000000,1.000000,1.000000,1.000000,1.000000,1.000000,1.000000,1.000000,1.000000,1.000000,1.000000,1.000000,1.000000,1.000000,1.000000,1.000000,1.000000,1.000000,0.548800,0.548800,0.549200,0.550400,1.000000,1.000000,1.000000,1.000000,0.547600,0.548100,0.548200,0.548300,0.547700,0.547600,0.547800,0.547900,0.548000,0.548000,0.547200,0.547200,0.547200,0.547200,0.547200,0.547100,0.547100,1.000000,1.000000,1.000000,0.547300,0.547200,0.547200,0.545900,0.545900,0.545900,0.546500,0.548100,0.548100,0.548200,0.548200,0.548200,1.000000,0.543000,0.543600,0.543600,0.543600,0.543600,0.543500,0.543400,0.542500,0.542100,0.541900,0.541900,0.541900,0.542400,0.542300,0.542200,0.542100,0.541600,0.541600,0.541600,0.541700,0.541800,0.541800,0.540800,0.540700,0.540700,0.540600,0.539100,0.539000,0.539000,0.539000,1.000000,0.497300,0.497300,0.497300,0.291200,0.291200,0.291100,0.291000,0.291000,0.291000,0.291000,0.291100,0.291200,0.291400,0.291600,0.291600,0.291700,0.291700,0.291700,0.291000,0.290900,0.290800,0.290700,0.290600,0.290500,0.290400,0.290200,0.290000,0.289900,0.289600,0.289300,0.289300,0.289200,0.289000,0.288900,0.288800,0.288800,0.288800,0.288800,0.288700,0.288500,0.288400,0.288400,0.288200,0.288100,0.288100,0.288200,0.288200,0.288200,0.288200,0.287300,0.287200,0.287100,0.287100,0.287000,0.287100,0.287200,0.287100,0.287000,0.286500,0.286500,0.286400,0.286300,0.286100,0.285800,0.285800,0.285800,0.286000,0.286000,0.286000,0.285900,0.285700,0.285600,0.284800,0.284700,0.284700,0.284700,0.284700,0.284700,0.284700,0.284600,0.284600,0.284400,0.283600,0.283600,0.283600,0.283600,0.283600,0.283600,0.283500,0.283500,0.283400,0.283300,0.283200,0.281800,0.281600,0.281600,0.282900,1.000000,0.360300,0.362000,1.000000,1.000000,1.000000,0.482300,0.482300,0.482300,0.483500,0.482800,0.482700,0.482900,0.483300,0.483600,0.483500,0.483400,0.483300,0.483400,0.483500,0.482100,0.482000,0.481200,0.481100,0.481100,0.481200,0.481200,0.480800,0.480800,0.480800,0.482500,0.482500,1.000000,1.000000,1.000000,1.000000,1.000000,1.000000,1.000000,1.000000,1.000000,0.477000,0.476300,0.476300,0.476400,0.476400,0.477300,0.477300,0.477200,0.476100
1.000000,1.000000,1.000000,1.000000,1.000000,1.000000,0.766400,1.000000,0.760200,1.000000,1.000000,1.000000,1.000000,1.000000,1.000000,1.000000,0.762600,0.762600,1.000000,1.000000,1.000000,1.000000,1.000000,1.000000,1.000000,1.000000,1.000000,1.000000,1.000000,1.000000,1.000000,1.000000,1.000000,1.000000,1.000000,1.000000,1.000000,0.550000,0.550700,0.550700,1.000000,1.000000,1.000000,1.000000,0.547400,0.547400,0.548200,0.549300,0.549300,0.549300,0.547800,0.547900,0.548000,0.548000,0.548000,0.547900,0.547400,0.547400,0.547400,0.547300,0.547200,0.547200,0.547100,1.000000,1.000000,0.547200,0.546100,0.545900,0.545100,0.545100,0.545900,0.546000,0.548100,0.548200,0.548200,0.546800,0.546800,1.000000,0.543000,0.543600,0.543600,0.543600,0.543600,0.543400,0.543400,0.543200,0.543000,0.541900,0.541900,0.541900,0.542100,0.542200,0.542200,0.542100,0.541800,0.541800,0.541800,0.541800,0.541800,0.541800,0.540700,0.540700,0.540600,0.540600,0.539500,0.539300,0.539200,1.000000,1.000000,0.497300,0.497300,1.000000,0.292000,0.291200,0.291100,0.291000,0.290900,0.290900,0.290900,0.291100,0.291200,0.291500,0.291600,0.291700,0.291800,0.291700,0.291600,0.291100,0.290900,0.290900,0.290700,0.290600,0.290100,0.290000,0.289900,0.289800,0.289700,0.289600,0.289400,0.289300,0.289200,0.289100,0.289000,0.288900,0.288900,0.288900,0.288800,0.288700,0.288500,0.288400,0.288300,0.288100,0.288100,0.288100,0.288200,0.288200,0.288200,0.287200,0.287200,0.287200,0.287100,0.287100,0.287200,0.287200,0.287100,0.287000,0.286800,0.286500,0.286400,0.286400,0.286300,0.286300,0.285800,0.285700,0.285800,0.285900,0.285900,0.285900,0.285800,0.285600,0.285200,0.284800,0.284700,0.284700,0.284700,0.284800,0.284800,0.284900,0.284700,0.284600,0.284500,0.283600,0.283600,0.283500,0.283500,0.283500,0.283500,0.283400,0.283300,0.283300,0.283200,0.283200,0.283200,0.283100,0.283000,0.283100,1.000000,0.360300,0.360300,1.000000,1.000000,0.482000,0.482000,0.482000,0.482100,0.483500,0.482200,0.482200,0.482300,0.482400,0.483700,0.483600,0.483400,0.482000,0.482000,0.482000,0.481700,0.481200,0.481100,0.481000,0.481000,0.481000,0.480600,0.480600,0.480600,0.480700,0.481400,0.482600,1.000000,1.000000,1.000000,1.000000,1.000000,1.000000,1.000000,1.000000,0.479400,0.478100,0.477100,0.476700,0.476700,0.477200,0.477400,0.477500,0.477400,0.476100
1.000000,1.000000,1.000000,1.000000,1.000000,1.000000,1.000000,1.000000,0.760200,0.760200,1.000000,1.000000,1.000000,1.000000,1.000000,0.762800,0.762700,0.762700,1.000000,1.000000,1.000000,1.000000,1.000000,1.000000,1.000000,1.000000,1.000000,1.000000,1.000000,1.000000,1.000000,1.000000,1.000000,1.000000,1.000000,1.000000,1.000000,0.550400,0.550800,0.550800,1.000000,1.000000,1.000000,1.000000,0.545900,0.545900,0.547500,0.547500,0.549300,0.549300,0.548900,0.547900,0.548000,0.548000,0.548100,0.548000,0.547700,0.547500,0.547400,0.547400,0.547300,0.547400,0.547400,1.000000,1.000000,1.000000,0.545100,0.545100,0.545100,0.545100,0.545100,0.545100,0.546400,0.548200,0.546700,0.546700,0.546800,1.000000,0.545300,1.000000,0.543700,0.543600,0.543500,0.543400,0.543400,0.543200,0.543100,0.542800,0.542000,0.542000,0.542100,0.542100,0.542200,0.542100,0.541900,0.541800,0.541800,0.541800,0.541800,0.540800,0.540500,0.540600,0.540600,0.540500,0.539600,0.539500,0.539300,0.539300,1.000000,0.497300,0.497300,1.000000,0.292000,0.292000,0.291500,0.291000,0.290900,0.290900,0.290900,0.291000,0.291100,0.291300,0.291300,0.291300,0.291600,0.291600,0.291600,0.291300,0.291000,0.290900,0.290600,0.290200,0.289900,0.289900,0.289800,0.289700,0.289600,0.289500,0.289400,0.289400,0.289300,0.289200,0.289200,0.289100,0.289100,0.289000,0.288900,0.288800,0.288500,0.288400,0.288200,0.288100,0.288000,0.288100,0.288200,0.288200,0.288200,0.287200,0.287200,0.287200,0.287200,0.287200,0.287200,0.287200,0.287000,0.286600,0.286500,0.286500,0.286500,0.286400,0.286400,0.286400,0.285800,0.285800,0.285700,0.285700,0.285700,0.285600,0.285500,0.285000,0.284900,0.284800,0.284800,0.284700,0.284800,0.284900,0.285000,0.285000,0.284800,0.284700,0.284500,0.283600,0.283600,0.283500,0.283500,0.283400,0.283400,0.283200,0.283200,0.283200,0.283200,0.283200,0.283200,0.283200,0.283200,0.283200,1.000000,0.360400,0.360400,0.360400,1.000000,1.000000,0.481900,1.000000,0.482100,0.483500,0.482200,0.482200,0.482100,0.482300,0.483800,0.483800,0.483100,0.482000,0.481900,0.481800,0.481400,0.481200,0.481000,0.480900,0.480900,0.480700,0.479800,0.479700,0.479700,0.479700,0.479800,0.481100,1.000000,1.000000,1.000000,1.000000,1.000000,1.000000,1.000000,1.000000,1.000000,0.477200,0.477100,0.477000,0.476900,0.477400,0.477500,0.477500,0.477500,0.477000
1.000000,1.000000,1.000000,1.000000,1.000000,1.000000,1.000000,1.000000,0.760200,0.760200,1.000000,1.000000,1.000000,1.000000,1.000000,0.762800,0.762700,0.761700,1.000000,1.000000,1.000000,1.000000,1.000000,1.000000,1.000000,1.000000,1.000000,1.000000,1.000000,1.000000,1.000000,1.000000,1.000000,0.754400,0.753400,1.000000,0.551400,0.551000,0.550900,0.550900,1.000000,1.000000,1.000000,1.000000,0.545900,0.545900,0.547500,0.547500,0.547900,0.548800,0.548000,0.547900,0.547900,0.548000,0.548100,0.548000,0.547800,0.547600,0.547400,0.547400,0.547300,0.547300,0.547400,0.547600,1.000000,1.000000,1.000000,0.545100,0.545100,0.545100,0.545100,0.545000,0.545400,0.546500,0.546700,0.546700,0.545200,0.545200,0.543900,0.543900,0.543800,0.543600,0.543500,0.543400,0.543300,0.543200,0.542900,0.542100,0.542000,0.542000,0.542100,0.543400,0.542200,0.542100,0.542000,0.541900,0.541800,0.541800,0.541800,0.540200,0.540100,0.540000,0.540200,0.540400,0.539600,0.539500,0.539400,0.539400,1.000000,0.497400,0.497400,1.000000,0.292000,0.292000,0.291900,0.291600,0.290900,0.290900,0.290900,0.291000,0.291100,0.291200,0.291200,0.291200,0.291200,0.291400,0.291500,0.291300,0.290900,0.290800,0.290100,0.290000,0.289800,0.289800,0.289700,0.289600,0.289600,0.289500,0.289500,0.289400,0.289400,0.289300,0.289300,0.289200,0.289200,0.289100,0.289000,0.288800,0.288500,0.288300,0.288200,0.288100,0.288000,0.288100,0.288200,0.288200,0.288200,0.288200,0.287200,0.287200,0.287200,0.287300,0.287300,0.287200,0.286600,0.286500,0.286500,0.286500,0.286500,0.286500,0.286400,0.286400,0.286200,0.285800,0.285700,0.285600,0.285600,0.285500,0.285300,0.285000,0.284900,0.284800,0.284800,0.284800,0.284800,0.285000,0.285000,0.285000,0.284900,0.284700,0.284400,0.283800,0.283600,0.283500,0.283400,0.283400,0.283300,0.283200,0.283100,0.283100,0.283100,0.283200,0.283200,0.283200,0.283300,0.283300,1.000000,0.360400,0.360400,0.360400,1.000000,1.000000,1.000000,1.000000,0.482100,0.483500,0.482100,0.482000,0.481300,0.481300,0.483800,0.483800,0.483800,0.481900,0.481800,0.481700,0.481400,0.481300,0.481000,0.480900,0.480800,0.479900,0.479800,0.479700,0.479700,0.479800,0.479800,0.481100,1.000000,1.000000,1.000000,1.000000,1.000000,1.000000,1.000000,1.000000,1.000000,0.477200,0.477100,0.477100,0.477100,0.477500,0.477600,0.477600,0.477600,0.477500
1.000000,1.000000,1.000000,1.000000,1.000000,1.000000,1.000000,1.000000,0.760700,1.000000,1.000000,1.000000,1.000000,1.000000,0.763000,0.762900,0.762800,0.760700,0.760000,0.755900,1.000000,1.000000,1.000000,1.000000,1.000000,1.000000,1.000000,1.000000,1.000000,1.000000,1.000000,1.000000,1.000000,0.753400,0.753400,1.000000,0.551700,0.551400,0.551200,0.551200,1.000000,1.000000,1.000000,0.544800,0.545900,0.545900,0.547600,0.547500,0.547600,0.547700,0.547900,0.547900,0.547800,0.548000,0.548100,1.000000,0.547700,0.547500,0.547400,0.547200,0.547100,0.547000,0.547200,0.547600,0.547700,0.547800,1.000000,0.545100,0.545100,0.545000,0.545000,0.544800,0.544800,0.545100,0.545100,0.545100,0.545100,0.545100,0.544000,0.544000,0.544000,0.544100,0.543400,0.543300,0.542300,0.542200,0.542200,0.542200,0.542200,0.542100,0.543400,0.543400,0.543400,0.543400,0.541900,0.541900,0.541800,0.541800,0.541700,0.540100,0.540000,0.539800,0.539800,0.539700,0.539600,0.539600,0.539500,0.539400,1.000000,0.497500,0.497500,1.000000,0.292000,0.292000,0.291900,0.291900,0.291900,0.291000,0.291000,0.291100,0.291100,0.291100,0.291000,0.291000,0.290900,0.290800,0.291200,0.290300,0.290200,0.290200,0.290000,0.289900,0.289800,0.289700,0.289600,0.289600,0.289600,0.289500,0.289500,0.289500,0.289400,0.289400,0.289400,0.289300,0.289200,0.289200,0.288900,0.288700,0.288500,0.288400,0.288300,0.288100,0.288100,0.288100,0.288200,0.288300,0.288200,0.288200,0.288000,0.287900,0.287500,0.287500,0.287400,0.287300,0.286700,0.286400,0.286400,0.286400,0.286500,0.286500,0.286500,0.286400,0.286300,0.286000,0.285600,0.285600,0.285400,0.285300,0.285200,0.285000,0.285000,0.284900,0.284900,0.285000,0.285000,0.285200,0.285200,0.285200,0.285100,0.284700,0.284400,0.284000,0.283600,0.283500,0.283400,0.283300,0.283200,0.283100,0.283000,0.283000,0.283000,0.283100,0.283100,0.283200,0.283300,0.283300,1.000000,1.000000,1.000000,0.360500,0.360600,1.000000,1.000000,1.000000,1.000000,0.482100,0.481300,0.481400,0.481000,0.481000,0.481000,0.482800,0.481800,0.481700,0.481700,1.000000,0.481500,0.481400,0.481300,0.481100,0.480800,0.480000,0.479800,0.479700,0.479800,0.479900,0.480200,0.480600,1.000000,1.000000,1.000000,1.000000,1.000000,1.000000,1.000000,1.000000,1.000000,0.477200,0.477200,0.477200,0.477600,0.477700,0.477700,0.477700,0.477600,0.477600
1.000000,1.000000,1.000000,1.000000,1.000000,1.000000,1.000000,1.000000,0.764900,1.000000,1.000000,1.000000,1.000000,1.000000,0.764600,0.763500,0.760000,0.758200,1.000000,0.755900,1.000000,1.000000,1.000000,1.000000,1.000000,1.000000,1.000000,1.000000,1.000000,1.000000,1.000000,1.000000,1.000000,0.745700,1.000000,1.000000,0.551800,0.551800,0.551600,0.551400,1.000000,1.000000,0.548200,0.548100,0.548000,0.547700,0.547600,0.547500,0.547500,0.546200,0.546200,0.545600,0.545500,0.545600,0.545600,1.000000,1.000000,0.547500,0.547300,0.547100,0.547000,0.546900,0.546800,0.547700,0.547800,0.549900,1.000000,0.545200,0.545100,0.545000,0.545000,0.544400,0.544500,0.544700,0.545100,0.545100,0.545000,0.545000,0.544000,0.544100,0.544100,0.544200,0.544200,0.542300,0.542200,0.542200,0.542200,0.542200,0.542200,0.543400,0.543400,0.543400,0.543400,0.543400,0.541800,0.541800,0.541600,0.541600,0.540200,0.540000,0.539900,0.539700,0.539600,0.539600,0.539600,0.539500,0.539400,0.539400,1.000000,0.497600,0.497600,0.497700,0.291900,0.291900,0.291900,0.291900,0.291900,0.291800,0.291100,0.291200,0.291200,0.291200,0.291000,0.290800,0.290700,0.290400,0.290300,0.290200,0.290200,0.290100,0.290000,0.289900,0.289800,0.289700,0.289600,0.289600,0.289600,0.289500,0.289500,0.289400,0.289400,0.289400,0.289400,0.289300,0.289300,0.289200,0.288800,0.288600,0.288500,0.288400,0.288400,0.288200,0.288200,0.288200,0.288300,0.288300,0.288200,0.288200,0.288000,0.288000,0.287700,0.287600,0.287500,0.286400,0.286400,0.286400,0.286400,0.286400,0.286400,0.286400,0.286400,0.286300,0.286000,0.285900,0.285600,0.285500,0.285400,0.285300,0.285200,0.285000,0.285000,0.285000,0.285000,0.285100,0.285100,0.285200,0.285300,0.285200,0.285100,0.284800,0.284400,0.284300,0.283800,0.283700,0.283500,0.283300,0.283200,0.283000,0.283000,0.283000,0.283000,0.283000,0.283000,0.283100,0.283200,0.283200,1.000000,1.000000,1.000000,1.000000,0.358300,1.000000,1.000000,1.000000,1.000000,1.000000,1.000000,1.000000,0.481000,0.481000,0.481000,0.481000,1.000000,0.481500,0.481500,0.481500,0.481500,0.481400,0.481400,0.481400,0.481200,0.480600,0.479800,0.479800,0.480300,0.480300,0.480300,0.480300,0.480400,0.480600,1.000000,1.000000,1.000000,1.000000,1.000000,1.000000,1.000000,0.477200,0.477200,0.478100,0.478000,0.477800,0.477700,0.477600,0.477500,0.477500
1.000000,1.000000,1.000000,1.000000,1.000000,1.000000,1.000000,1.000000,0.764900,0.764900,1.000000,1.000000,1.000000,1.000000,0.763600,0.761600,0.760100,1.000000,1.000000,0.756000,0.756000,0.756000,0.759100,1.000000,1.000000,1.000000,1.000000,1.000000,1.000000,1.000000,1.000000,1.000000,1.000000,1.000000,0.748600,1.000000,1.000000,0.551900,0.551800,0.551700,0.551400,1.000000,0.549200,0.549200,0.550600,0.549800,0.548200,0.547500,0.546300,1.000000,1.000000,0.545600,0.545600,0.545600,0.545600,0.547700,0.547700,0.547500,0.547400,0.547100,0.546900,0.546800,0.546400,0.546700,0.547700,0.549600,0.545300,0.543600,0.542700,0.542800,0.543200,0.543500,0.543800,0.544400,0.544500,0.544600,0.544000,0.543900,0.542800,0.542800,0.542800,0.544200,0.542200,0.542200,0.542200,0.542200,0.542200,0.542200,0.542200,0.542300,0.543400,0.543400,0.543400,0.542400,0.541700,0.541600,0.541600,0.541600,0.540200,0.540000,0.539900,0.539700,0.539600,0.539600,0.539600,0.539500,0.539400,0.539400,1.000000,0.497900,0.497900,0.497800,1.000000,0.291900,0.291900,0.291900,0.291900,0.291800,0.291700,0.291600,0.291300,0.291200,0.290700,0.290600,0.290600,0.290300,0.290200,0.290100,0.290100,0.290000,0.289900,0.289900,0.289800,0.289700,0.289600,0.289600,0.289500,0.289400,0.289300,0.289300,0.289300,0.289300,0.289300,0.289200,0.289200,0.289100,0.288400,0.288400,0.288400,0.288400,0.288400,0.288300,0.288300,0.288300,0.288300,0.288300,0.288200,0.288100,0.288000,0.287900,0.287800,0.287700,0.287600,0.286400,0.286400,0.286300,0.286300,0.286400,0.286400,0.286400,0.286300,0.286200,0.286000,0.285900,0.285700,0.285600,0.285400,0.285300,0.285200,0.285100,0.285100,0.285100,0.285100,0.285200,0.285300,0.285300,0.285300,0.285200,0.285000,0.284800,0.284600,0.284300,0.283900,0.283700,0.283600,0.283300,0.283200,0.283000,0.283000,0.282900,0.282800,0.282800,0.282800,0.282800,0.282800,0.282900,1.000000,1.000000,1.000000,1.000000,1.000000,1.000000,1.000000,1.000000,1.000000,0.354500,1.000000,1.000000,0.480900,0.480900,0.481000,0.481000,0.481300,0.481400,0.481400,0.481400,0.481400,0.481400,0.481500,0.481500,0.481400,0.480900,0.480700,0.480600,0.480500,0.480400,0.480300,0.480300,0.480200,0.480200,1.000000,1.000000,1.000000,1.000000,1.000000,1.000000,1.000000,0.479100,0.479200,0.479200,0.479200,0.477900,0.477700,0.477600,0.477400,0.477300
1.000000,1.000000,1.000000,1.000000,1.000000,1.000000,1.000000,1.000000,0.765000,1.000000,0.765000,1.000000,1.000000,1.000000,0.761600,0.761600,0.760000,1.000000,1.000000,1.000000,1.000000,0.757000,0.757000,1.000000,1.000000,1.000000,1.000000,1.000000,1.000000,1.000000,1.000000,1.000000,1.000000,1.000000,1.000000,1.000000,0.552000,0.552000,0.551900,0.551600,0.549100,0.549100,1.000000,0.550500,0.550600,0.550600,0.549900,0.548300,0.548300,1.000000,1.000000,1.000000,0.545600,0.545700,0.545800,0.546000,0.547600,0.547500,0.547400,0.547300,0.546900,0.545800,0.545800,1.000000,0.548700,0.548700,0.543600,0.542700,0.542700,0.542800,0.543300,0.543600,0.544400,0.544400,0.544400,0.544400,0.544200,0.542800,0.542700,0.542200,0.542000,0.542200,0.542100,0.542100,0.542000,0.542100,0.542100,0.542200,0.542200,0.542200,0.541200,0.541200,0.541400,0.541800,0.541500,0.541400,0.541400,0.541400,0.540200,0.540100,0.539900,0.539800,0.539700,0.539600,0.539600,0.539600,0.539500,0.539400,1.000000,0.498000,0.498000,0.497900,1.000000,0.291900,0.291800,0.291800,0.291800,0.291700,0.291700,0.291600,0.291500,0.290800,0.290700,0.290600,0.290600,0.290300,0.290200,0.290100,0.290100,0.290000,0.289900,0.289900,0.289800,0.289700,0.289700,0.289600,0.289500,0.289300,0.289300,0.289200,0.289200,0.289200,0.289200,0.289200,0.289100,0.289000,0.288300,0.288300,0.288300,0.288400,0.288300,0.288300,0.288300,0.288300,0.288200,0.288200,0.288100,0.288100,0.288000,0.287900,0.287700,0.287500,0.287300,0.286400,0.286400,0.286300,0.286300,0.286300,0.286300,0.286200,0.286200,0.286100,0.286000,0.285900,0.285700,0.285600,0.285400,0.285400,0.285300,0.285200,0.285200,0.285200,0.285200,0.285300,0.285300,0.285300,0.285200,0.285100,0.285000,0.284700,0.284600,0.284200,0.284000,0.283700,0.283600,0.283300,0.283200,0.283000,0.283000,0.282900,0.282800,0.282800,0.282800,0.282800,0.282800,0.282800,1.000000,0.358900,0.358900,0.357300,0.357400,0.358200,1.000000,0.354900,0.354500,0.354500,1.000000,0.480900,0.482300,0.482300,0.482300,0.481200,0.481300,0.481300,0.481200,0.481200,0.481100,0.481200,0.481400,0.481500,0.481300,0.480900,0.480800,0.480600,0.480500,0.480400,0.480200,0.480200,0.480100,0.480100,1.000000,1.000000,1.000000,1.000000,1.000000,1.000000,1.000000,0.479100,0.479100,0.479200,0.477900,0.477800,0.477600,0.477500,0.477300,0.477300
1.000000,1.000000,1.000000,1.000000,1.000000,1.000000,1.000000,1.000000,1.000000,1.000000,1.000000,1.000000,1.000000,1.000000,1.000000,0.761600,1.000000,1.000000,1.000000,1.000000,1.000000,0.757000,0.757000,1.000000,1.000000,1.000000,1.000000,1.000000,1.000000,1.000000,1.000000,1.000000,1.000000,1.000000,0.751100,1.000000,0.552000,0.552000,0.551900,0.551600,0.546700,1.000000,1.000000,0.548400,0.550600,0.550600,0.550600,0.548400,0.548300,1.000000,1.000000,0.545800,0.545800,0.545900,1.000000,0.546200,0.547600,0.547600,0.547500,0.547400,0.546700,0.545800,0.545800,1.000000,0.546500,0.546400,0.543700,1.000000,0.542700,0.543500,0.543600,0.543700,0.544400,0.544400,0.544400,0.544300,1.000000,1.000000,0.541400,0.541500,0.541600,0.541800,0.542000,0.542000,0.542000,0.542000,0.542100,0.542100,0.542200,0.542200,0.541100,0.541200,0.541400,0.541500,0.541400,0.541400,0.541300,0.540300,0.540200,0.540100,0.540000,0.539800,0.539700,0.539700,0.539600,0.539600,0.539500,0.539500,1.000000,0.498100,0.498000,0.498000,1.000000,0.291900,0.291800,0.291800,0.291800,0.291700,0.291600,0.291600,0.290800,0.290700,0.290600,0.290600,0.290600,0.291300,0.291400,0.290100,0.290000,0.290000,0.289900,0.289800,0.289800,0.289700,0.289700,0.289600,0.289600,0.289300,0.289200,0.289200,0.289100,0.289100,0.289100,0.289100,0.289100,0.289000,0.288300,0.288300,0.288200,0.288300,0.288300,0.288300,0.288300,0.288200,0.288200,0.288200,0.288100,0.288000,0.288000,0.287900,0.287600,0.287300,0.286900,0.286400,0.286400,0.286300,0.286300,0.286300,0.286300,0.286200,0.286100,0.286000,0.286000,0.286000,0.285800,0.285700,0.285500,0.285400,0.285400,0.285200,0.285200,0.285200,0.285200,0.285200,0.285200,0.285300,0.285200,0.285000,0.285000,0.284700,0.284600,0.284200,0.284000,0.283800,0.283600,0.283300,0.283200,0.283000,0.283000,0.282900,0.282800,0.282800,0.282700,0.282700,0.282700,1.000000,1.000000,0.358900,0.358900,1.000000,0.358200,0.358200,0.358200,0.354900,0.354500,0.354400,1.000000,0.482300,0.482300,0.482300,0.482300,0.482000,0.481300,0.481300,0.481100,0.481000,0.480900,0.481000,0.481200,0.481400,0.480800,0.480900,0.480900,0.480700,0.480500,0.480400,0.480200,0.480100,0.480100,0.480100,0.480100,1.000000,1.000000,1.000000,1.000000,1.000000,0.479200,0.479100,0.479100,0.478000,0.477900,0.477800,0.477600,0.477400,0.477200,0.477100
1.000000,1.000000,1.000000,1.000000,1.000000,1.000000,1.000000,1.000000,1.000000,1.000000,1.000000,1.000000,1.000000,1.000000,1.000000,1.000000,1.000000,1.000000,1.000000,1.000000,1.000000,1.000000,1.000000,1.000000,1.000000,1.000000,1.000000,1.000000,1.000000,1.000000,1.000000,1.000000,1.000000,0.757700,0.757700,0.751100,0.548400,0.548400,0.548500,1.000000,1.000000,1.000000,1.000000,1.000000,0.548100,0.548300,0.550600,0.549800,0.548400,0.547900,0.546300,0.546200,0.546100,0.546400,0.546400,0.546200,0.546300,0.546300,0.546500,0.546400,0.545900,0.545900,0.545900,0.545900,0.546100,0.545900,0.543800,0.543800,0.543700,0.543800,0.543800,0.544100,0.544300,0.544300,0.544300,0.544300,0.542700,0.541200,0.541200,0.541400,0.541500,0.541700,0.541900,0.541900,0.542000,0.542000,0.542100,0.542100,0.542100,0.541000,0.541100,0.541200,0.541400,0.541400,0.541300,0.540800,0.540400,0.540300,0.540200,0.540100,0.540000,0.539900,0.539800,0.539700,0.539700,0.539700,0.539700,0.539700,1.000000,0.498200,0.498200,0.498200,1.000000,0.291900,0.291800,0.291800,0.291600,0.291600,0.291500,0.291300,0.290600,0.290600,0.290600,0.290600,0.291400,0.291400,0.291400,0.290100,0.290000,0.290000,0.289900,0.289800,0.289800,0.289700,0.289700,0.289700,0.289600,0.289200,0.289200,0.289100,0.289100,0.289100,0.289100,0.289100,0.289100,0.289000,0.288200,0.288200,0.288200,0.288300,0.288300,0.288300,0.288200,0.288200,0.288200,0.288100,0.288000,0.288000,0.288000,0.287900,0.287600,0.287300,0.287100,0.286600,0.286500,0.286400,0.286400,0.286400,0.286300,0.286100,0.286000,0.286000,0.286000,0.286000,0.285900,0.285800,0.285600,0.285500,0.285400,0.285300,0.285200,0.285200,0.285100,0.285100,0.285100,0.285100,0.285000,0.284900,0.284800,0.284700,0.284600,0.284200,0.284000,0.283800,0.283500,0.283300,0.283200,0.283000,0.283000,0.282900,0.282800,0.282800,0.282700,0.282700,0.282700,0.282700,1.000000,0.359000,0.358900,1.000000,1.000000,1.000000,1.000000,1.000000,0.355000,0.354700,1.000000,0.482300,0.482300,0.482400,0.482400,0.482400,0.482300,0.481300,0.480900,0.480800,0.480800,0.480800,0.480900,0.480400,0.480500,0.480700,0.480800,0.480800,0.480600,0.480400,0.480200,0.480100,0.480000,0.480000,0.480100,1.000000,1.000000,1.000000,1.000000,1.000000,0.479200,0.479100,0.479100,0.478000,0.477900,0.477700,0.477300,0.477200,0.477000,0.476400
1.000000,1.000000,1.000000,1.000000,1.000000,1.000000,1.000000,1.000000,1.000000,1.000000,1.000000,1.000000,1.000000,1.000000,1.000000,1.000000,1.000000,1.000000,1.000000,1.000000,1.000000,0.756200,1.000000,1.000000,1.000000,1.000000,1.000000,1.000000,1.000000,1.000000,1.000000,1.000000,1.000000,1.000000,0.757700,1.000000,1.000000,0.546800,0.546800,0.543900,1.000000,1.000000,1.000000,1.000000,0.547100,0.547300,0.547600,0.547700,0.547800,0.546500,0.546400,0.546400,0.546400,0.549200,0.549200,0.546600,0.546300,0.545300,0.545300,0.546200,0.546000,0.546000,0.546000,0.546000,0.546000,0.544800,0.544600,0.544300,0.543900,0.543900,0.544000,0.544100,0.544200,0.544300,0.544200,0.544100,0.541200,0.541200,0.541200,0.541300,0.541500,0.541800,0.541900,0.541900,0.542000,0.542000,0.542100,0.542100,0.541000,0.541000,0.541000,0.541100,0.541400,0.541400,0.540400,0.540400,0.540300,0.540200,0.540200,0.540100,0.540000,0.539900,0.539700,0.539600,0.539600,0.539700,0.539800,0.539800,1.000000,0.498200,0.498200,0.498200,1.000000,0.291900,0.291800,0.291700,0.291600,0.291600,0.291500,0.291300,0.290600,0.290600,0.290500,0.290500,0.291400,0.291400,0.291400,0.291400,0.290100,0.290000,0.289900,0.289900,0.289800,0.289800,0.289800,0.289800,0.289800,0.289700,0.289400,0.289300,0.289200,0.289200,0.289200,0.289100,0.289100,0.289100,0.288600,0.288100,0.288100,0.288300,0.288300,0.288300,0.288200,0.288100,0.288000,0.288000,0.287900,0.287900,0.287800,0.287800,0.287600,0.287400,0.287300,0.286800,0.286600,0.286500,0.286500,0.286400,0.286300,0.286200,0.285800,0.285700,0.285400,0.285300,0.285200,0.285700,0.285600,0.285500,0.285400,0.285300,0.285200,0.285100,0.285000,0.285000,0.285000,0.283800,0.283800,0.284500,0.284800,0.284600,0.284600,0.284300,0.284000,0.283800,0.283500,0.283400,0.283200,0.283100,0.283000,0.283000,0.282800,0.282800,0.282700,0.282700,0.282700,0.282700,1.000000,0.359000,0.359000,0.359000,0.358400,1.000000,1.000000,1.000000,1.000000,1.000000,1.000000,0.482300,0.482400,0.482400,0.482400,0.482400,0.482400,0.481600,0.480700,0.480700,0.480600,0.480600,0.480400,0.480400,0.480400,0.480500,0.480700,0.480700,0.480700,0.480500,0.480100,0.480100,0.478200,0.478600,0.480000,1.000000,1.000000,1.000000,1.000000,1.000000,0.479200,0.479100,0.479000,0.476200,0.476200,0.476300,0.477100,0.477000,0.476900,0.476300
1.000000,1.000000,1.000000,1.000000,1.000000,1.000000,1.000000,1.000000,1.000000,1.000000,1.000000,1.000000,1.000000,1.000000,1.000000,1.000000,1.000000,1.000000,1.000000,0.755100,1.000000,0.756100,0.756100,1.000000,1.000000,1.000000,1.000000,1.000000,1.000000,1.000000,1.000000,1.000000,1.000000,1.000000,1.000000,1.000000,1.000000,1.000000,0.546000,0.543900,1.000000,1.000000,1.000000,1.000000,0.547300,0.547400,0.547600,0.547600,0.547600,0.546400,0.546400,0.546400,0.546400,0.550000,0.550000,0.548900,0.545300,0.545300,0.545300,0.545300,0.546100,0.546000,0.546000,0.546100,0.546000,0.544700,0.544600,0.544500,0.544000,0.544000,0.544000,0.544100,0.544200,0.544000,0.544000,0.543900,0.541200,0.541200,0.541200,0.542400,0.542500,0.542600,0.542800,0.543000,0.543200,0.542100,0.542100,0.542100,0.540900,0.541000,0.541000,0.541100,0.541400,0.541400,0.540400,0.540300,0.540300,0.540200,0.540200,0.540100,0.540100,0.539800,0.539700,0.539500,0.538700,0.538700,0.539800,0.539800,1.000000,1.000000,0.496700,0.496700,1.000000,0.291800,0.291600,0.291600,0.291600,0.291500,0.291500,0.291300,0.290600,0.290300,0.290200,0.290200,0.291400,0.291400,0.291400,0.290200,0.290100,0.290100,0.290000,0.289900,0.289900,0.289900,0.289900,0.289900,0.289900,0.289800,0.289700,0.289600,0.289300,0.289300,0.289200,0.289200,0.289100,0.289100,0.289000,0.289000,0.288800,0.288600,0.288500,0.288300,0.288200,0.288000,0.288000,0.287900,0.287800,0.287800,0.287800,0.287700,0.287500,0.287400,0.287300,0.287000,0.286900,0.286700,0.286600,0.286500,0.286300,0.285800,0.285600,0.285600,0.285300,0.285200,0.285200,0.285300,0.285400,0.285400,0.285400,0.285300,0.285300,0.285000,0.284800,0.284600,0.283800,0.283800,0.283700,0.283700,0.283800,0.284200,0.284400,0.284200,0.284000,0.283700,0.283400,0.283300,0.283200,0.283100,0.283000,0.283000,0.282800,0.282700,0.282600,0.282600,0.282600,0.282600,1.000000,1.000000,1.000000,1.000000,0.358400,1.000000,1.000000,1.000000,1.000000,1.000000,1.000000,0.482400,0.482400,0.482400,0.482500,0.482400,0.482400,0.482200,0.480700,0.480700,0.480600,0.480500,0.480400,0.480400,0.480400,0.480500,0.480600,0.480700,0.480700,0.480600,0.480000,0.479000,0.478200,0.478200,0.478300,1.000000,1.000000,1.000000,1.000000,1.000000,0.479200,0.479000,0.478200,0.476200,0.476300,0.476300,0.476400,0.476900,0.476800,0.476200
1.000000,1.000000,1.000000,1.000000,1.000000,1.000000,1.000000,1.000000,1.000000,1.000000,1.000000,1.000000,1.000000,1.000000,1.000000,1.000000,1.000000,1.000000,1.000000,0.755200,0.755400,0.756000,1.000000,1.000000,1.000000,1.000000,1.000000,1.000000,1.000000,1.000000,1.000000,1.000000,1.000000,1.000000,1.000000,1.000000,1.000000,0.546200,0.546000,0.543900,1.000000,1.000000,1.000000,1.000000,0.547400,0.547400,1.000000,0.547500,1.000000,1.000000,1.000000,0.546400,0.546600,0.549600,0.549900,0.549400,0.547200,0.545300,0.545300,0.545300,0.545400,0.548000,0.548000,0.548000,0.546200,0.544700,0.544700,0.544500,0.544300,0.544300,0.544200,0.544200,0.544200,0.544000,0.543900,0.543800,0.542300,0.542200,0.541200,0.542400,0.542500,0.542600,0.542800,0.543000,0.543400,0.542100,0.542100,0.542100,0.540900,0.540900,0.541000,0.541000,0.541300,0.541400,0.540300,0.540200,0.540200,0.540200,0.540200,0.540100,0.540000,0.539300,0.539100,0.538900,0.538700,0.538600,0.538400,0.538400,1.000000,0.496600,0.496600,0.496600,1.000000,0.291600,0.291600,0.291600,0.291600,0.291600,0.291600,0.291500,0.291500,0.290200,0.290100,0.290000,0.290800,0.291200,0.290900,0.290200,0.290200,0.290200,0.290300,0.290300,0.290100,0.290000,0.290000,0.289900,0.289900,0.289800,0.289700,0.289600,0.289500,0.289400,0.289200,0.289200,0.289100,0.289000,0.289000,0.288900,0.288700,0.288600,0.288600,0.288300,0.288100,0.287900,0.287800,0.287700,0.287500,0.287400,0.287200,0.287100,0.286900,0.286900,0.287000,0.286900,0.286900,0.286700,0.286600,0.286500,0.285600,0.285600,0.285400,0.285400,0.285300,0.285200,0.285100,0.285100,0.285200,0.285200,0.285300,0.285300,0.285300,0.284400,0.284300,0.284200,0.283900,0.283800,0.283700,0.283700,0.283800,0.283800,0.284300,0.284000,0.283900,0.283600,0.283400,0.283300,0.283200,0.283200,0.283100,0.283000,0.282800,0.282700,0.282600,0.282500,0.282500,0.282500,1.000000,1.000000,0.356900,0.356900,0.352200,0.352200,1.000000,1.000000,1.000000,1.000000,1.000000,0.482500,0.482500,0.482500,0.482500,0.482400,0.482300,0.482200,0.482000,0.480700,0.480600,0.480600,0.480400,0.480400,0.480400,0.480500,0.480600,0.479700,0.479600,0.479600,0.478500,0.478300,0.478200,0.478200,1.000000,1.000000,1.000000,1.000000,1.000000,1.000000,0.478300,0.478200,0.478200,0.476300,0.476300,0.476400,0.476800,0.476900,0.476900,0.476300
1.000000,1.000000,1.000000,1.000000,1.000000,1.000000,1.000000,1.000000,1.000000,1.000000,1.000000,1.000000,1.000000,1.000000,1.000000,1.000000,1.000000,1.000000,1.000000,0.755200,1.000000,1.000000,1.000000,1.000000,1.000000,1.000000,1.000000,1.000000,1.000000,1.000000,1.000000,1.000000,1.000000,1.000000,1.000000,1.000000,1.000000,0.546200,0.546100,0.543900,1.000000,1.000000,1.000000,1.000000,0.547400,0.547400,1.000000,1.000000,1.000000,1.000000,1.000000,1.000000,0.546700,0.547300,0.549400,0.549400,0.547300,0.545300,0.545400,0.545400,0.545400,1.000000,0.548000,0.548000,0.544900,0.544800,0.544700,0.544500,0.544400,0.544300,0.544300,0.544200,0.544200,0.544000,0.543900,0.543400,0.542300,0.542300,0.542300,0.542400,0.542500,0.542600,0.542800,0.543000,0.543400,0.543500,0.542100,0.540900,0.540800,0.540800,0.540900,0.541000,0.541200,0.541300,0.540300,0.540200,0.540200,0.540200,0.540100,0.540100,0.539700,0.539200,0.539100,0.538900,0.538700,0.538600,0.538400,0.538400,1.000000,0.496600,0.496600,0.496600,1.000000,1.000000,0.291500,0.291500,0.291600,0.291600,0.291600,0.291600,0.291600,0.290000,0.290000,0.289900,0.289900,0.289900,0.290000,0.290200,0.290300,0.290300,0.290300,0.290300,0.290200,0.290100,0.290000,0.289900,0.289800,0.289700,0.289600,0.289600,0.289500,0.289400,0.289200,0.289100,0.288900,0.288900,0.288800,0.288700,0.288600,0.288600,0.288500,0.288200,0.288000,0.287800,0.287700,0.287500,0.287400,0.287300,0.287100,0.286900,0.286800,0.286700,0.286700,0.286800,0.286800,0.286700,0.286500,0.285800,0.285600,0.285500,0.285400,0.285300,0.285200,0.285100,0.285000,0.285000,0.285000,0.285000,0.284900,0.284400,0.284400,0.284300,0.284300,0.284200,0.283900,0.283800,0.283700,0.283700,0.283700,0.283800,0.283900,0.283800,0.283700,0.283600,0.283400,0.283400,0.283300,0.283200,0.283200,0.283100,0.282900,0.282800,0.282500,0.282400,0.282400,0.282400,1.000000,1.000000,0.356900,1.000000,0.352200,0.352200,1.000000,1.000000,1.000000,0.355100,1.000000,0.482600,0.482700,0.482700,0.482500,0.482400,0.482300,0.482200,0.482100,0.482000,0.480700,0.480600,0.480500,0.480500,0.480500,0.480500,0.480000,0.479400,0.479200,0.479000,0.478500,0.478400,0.478200,0.479200,1.000000,1.000000,1.000000,1.000000,1.000000,1.000000,1.000000,0.478200,0.478200,0.478100,0.476600,0.476800,0.476900,0.477000,0.477200,0.476800
1.000000,1.000000,1.000000,1.000000,1.000000,1.000000,1.000000,1.000000,1.000000,1.000000,1.000000,1.000000,1.000000,1.000000,1.000000,1.000000,1.000000,1.000000,1.000000,1.000000,1.000000,1.000000,1.000000,1.000000,1.000000,1.000000,1.000000,1.000000,1.000000,1.000000,1.000000,1.000000,1.000000,1.000000,1.000000,1.000000,1.000000,0.549800,0.549800,0.549800,0.549600,1.000000,1.000000,0.547400,0.547400,0.547300,0.547300,0.547200,0.547200,1.000000,0.547900,0.546600,0.547000,0.547100,0.547200,0.547200,0.547100,0.546000,0.545400,0.545400,0.545400,0.545300,0.545200,0.545100,0.545000,0.544900,0.544800,0.544100,0.543100,0.543200,0.544400,0.544300,0.544200,0.543400,0.542300,0.542300,0.542300,0.542400,0.542500,0.542500,0.542600,0.542600,0.542700,0.543100,0.543500,0.543500,0.541100,0.540800,0.540600,0.540700,0.540800,0.540900,0.541000,0.541100,0.540300,0.540200,0.540200,0.540100,0.540100,0.539400,0.539300,0.539200,0.539100,0.539000,0.538700,0.538500,0.538400,0.537000,1.000000,0.496500,0.496500,0.496500,1.000000,0.291400,0.291500,0.291500,0.291600,0.291600,0.291600,0.291600,0.291600,0.290000,0.290000,0.289900,0.289900,0.289900,0.290000,0.290100,0.290300,0.290300,0.290300,0.290200,0.290100,0.289800,0.289500,0.289200,0.289200,0.289200,0.289400,0.289500,0.289500,0.289400,0.289200,0.289000,0.288700,0.288600,0.288600,0.288500,0.288500,0.288500,0.288300,0.288000,0.287900,0.287700,0.287600,0.287400,0.287300,0.287200,0.287000,0.286900,0.286700,0.286600,0.286600,0.286600,0.286600,0.286200,0.285800,0.285700,0.285500,0.285400,0.285300,0.285200,0.285200,0.285100,0.285000,0.285000,0.284900,0.284700,0.284600,0.284400,0.284400,0.284300,0.284300,0.284200,0.284000,0.283800,0.283700,0.283600,0.283600,0.283700,0.283700,0.283600,0.283600,0.283500,0.283400,0.283400,0.283300,0.283300,0.283300,0.283200,0.283000,0.282800,0.282600,0.282400,0.282400,0.282400,1.000000,1.000000,0.482100,1.000000,0.482200,0.482400,1.000000,0.355000,0.355100,0.355100,1.000000,0.483000,0.483000,0.482900,0.482600,0.482400,0.482300,0.482200,0.482200,0.482100,0.481600,0.480800,0.480600,0.480600,0.480600,0.480600,0.479800,0.479200,0.479000,0.478900,0.478800,0.478800,0.478900,0.479200,1.000000,1.000000,1.000000,1.000000,1.000000,1.000000,1.000000,0.478200,0.478200,0.478100,0.477100,0.476800,0.476900,0.477200,0.477300,0.477400
1.000000,1.000000,1.000000,1.000000,1.000000,1.000000,1.000000,1.000000,1.000000,1.000000,1.000000,1.000000,1.000000,1.000000,1.000000,1.000000,1.000000,1.000000,1.000000,1.000000,1.000000,1.000000,1.000000,1.000000,1.000000,1.000000,1.000000,1.000000,1.000000,1.000000,1.000000,1.000000,1.000000,1.000000,1.000000,1.000000,1.000000,0.549800,1.000000,0.549900,0.549900,0.549800,0.549400,0.547400,0.547400,0.547300,0.547200,0.547200,0.547200,1.000000,1.000000,0.547200,0.547100,0.547100,0.547200,0.547100,0.547000,0.546100,0.546000,0.545900,0.545600,1.000000,0.545200,1.000000,0.545100,0.545100,0.545000,0.543200,0.543200,0.543200,0.543200,0.544300,0.544200,0.542700,0.542400,0.542200,0.541600,0.542500,0.542600,0.542600,0.542600,0.542500,0.542400,0.542300,0.543300,0.541100,0.541000,0.540400,0.540400,0.540500,0.540600,0.540700,0.540800,0.540600,0.540300,0.540200,0.540100,0.540000,0.539900,0.539300,0.539300,0.539300,0.539200,0.539200,0.538800,0.538500,0.537000,0.537000,1.000000,0.496500,0.496500,0.496500,1.000000,1.000000,0.291500,0.291500,0.291600,0.291600,0.291600,0.291600,0.291500,0.290100,0.290000,0.290000,0.289900,0.289900,0.290000,0.290100,0.290300,0.290300,0.290200,0.290200,0.290000,0.289700,0.289500,0.289200,0.289200,0.289200,0.289300,0.289400,0.289400,0.289400,0.289200,0.288900,0.288400,0.288300,0.288300,0.288300,0.288300,0.288100,0.287900,0.287800,0.287700,0.287500,0.287400,0.287200,0.287000,0.287000,0.286900,0.286800,0.286600,0.286400,0.286300,0.286000,0.285900,0.285800,0.285700,0.285600,0.285500,0.285400,0.285200,0.285200,0.285100,0.285000,0.285000,0.284900,0.284700,0.284600,0.284600,0.284400,0.284400,0.284400,0.284300,0.284300,0.284000,0.283900,0.283700,0.283600,0.283600,0.283600,0.283600,0.283600,0.283600,0.283600,0.283500,0.283500,0.283400,0.283400,0.283400,0.283400,0.283400,0.283000,0.282600,0.282600,0.282500,0.282400,1.000000,0.482000,0.482100,0.482100,0.482200,0.482400,0.482400,1.000000,0.355100,0.355100,1.000000,0.483000,0.483000,0.483000,0.482800,0.482300,0.482200,0.482200,0.482200,0.482200,0.480900,0.480700,0.480700,0.480600,0.480600,0.480600,0.480600,0.479000,0.479000,0.478900,0.478900,0.478900,0.479000,0.479100,0.479100,1.000000,1.000000,1.000000,1.000000,1.000000,0.478300,0.478200,0.478200,0.478200,0.477100,0.476100,0.476100,0.477300,0.477400,0.477500
1.000000,1.000000,1.000000,1.000000,1.000000,1.000000,1.000000,1.000000,1.000000,1.000000,1.000000,1.000000,1.000000,1.000000,1.000000,1.000000,1.000000,0.756900,0.758400,1.000000,1.000000,1.000000,1.000000,1.000000,1.000000,1.000000,1.000000,1.000000,1.000000,1.000000,1.000000,1.000000,1.000000,1.000000,1.000000,1.000000,0.546800,0.548100,0.549900,0.549900,0.549900,0.549900,0.549800,0.549300,0.547400,0.547400,0.547200,0.547100,0.547100,0.547600,0.547300,0.547200,0.547200,0.547200,0.547100,0.547000,0.546300,0.546200,0.546100,0.546000,0.545500,0.545400,0.545200,0.545200,0.545200,0.545100,0.545100,0.543200,0.543200,0.543200,0.543200,0.544000,0.543600,0.542800,0.541500,0.541600,0.541600,0.542700,0.542800,0.542800,0.542700,0.542400,0.542200,0.542000,0.541800,0.541100,0.541000,0.540400,0.540400,0.540500,0.540600,0.540600,0.540700,0.540500,0.540300,0.540100,0.540000,0.540000,0.539900,0.539300,0.539300,0.539300,0.539300,0.539500,0.539700,0.540000,0.538400,0.537000,1.000000,0.496400,0.496400,0.495300,1.000000,0.291500,0.291500,0.291600,0.291600,0.291600,0.291500,0.291400,0.291300,0.290300,0.290200,0.290000,0.290000,0.290000,0.290000,0.290100,0.290200,0.290200,0.290100,0.290000,0.289900,0.289800,0.289500,0.289200,0.289200,0.289100,0.289200,0.289300,0.289300,0.289300,0.289300,0.289200,0.288300,0.288200,0.288200,0.288200,0.288200,0.287900,0.287800,0.287600,0.287600,0.287400,0.287200,0.287100,0.287000,0.287000,0.286900,0.286800,0.286600,0.286400,0.286200,0.285900,0.285900,0.285700,0.285700,0.285600,0.285400,0.285400,0.285200,0.285200,0.285100,0.285000,0.285000,0.284900,0.284800,0.284700,0.284600,0.284500,0.284500,0.284400,0.284400,0.284300,0.284100,0.284000,0.283700,0.283600,0.283600,0.283500,0.283500,0.283500,0.283500,0.283600,0.283600,0.283500,0.283400,0.283400,0.283400,0.283400,0.283400,0.283400,0.282700,0.282600,0.282600,0.282500,1.000000,0.480200,0.482100,0.482100,0.482200,0.482400,0.482400,1.000000,0.355000,0.355000,1.000000,0.483000,0.483000,0.483000,0.482900,0.482200,0.482200,0.482200,0.482200,0.482200,0.480600,0.479900,0.480100,0.480600,0.480600,0.481800,0.481800,0.479000,0.478900,0.478900,0.478900,0.478900,0.479000,0.479000,1.000000,1.000000,1.000000,1.000000,1.000000,1.000000,0.478200,0.478200,0.478200,0.477500,0.476100,0.476100,0.476100,0.476100,0.476100,0.476100
1.000000,1.000000,1.000000,1.000000,1.000000,1.000000,1.000000,1.000000,1.000000,1.000000,1.000000,1.000000,1.000000,1.000000,1.000000,1.000000,1.000000,1.000000,0.756900,1.000000,1.000000,1.000000,1.000000,1.000000,1.000000,1.000000,1.000000,1.000000,1.000000,1.000000,1.000000,1.000000,1.000000,1.000000,1.000000,1.000000,1.000000,0.546900,0.546900,0.546900,0.549800,0.549800,0.549800,0.549800,0.549800,0.547700,0.547600,0.547600,0.547600,0.547500,0.547300,0.547300,0.547300,0.548700,0.548700,0.547000,0.546400,0.546300,0.546300,0.546300,0.546700,0.546900,0.545300,0.545300,0.545200,0.545200,0.545200,0.545100,0.543200,0.543200,0.543200,0.543200,0.543000,0.542800,0.541700,0.541600,0.541600,0.543000,0.543000,0.542900,0.542000,0.542000,0.542000,0.542000,0.541200,0.541100,0.541100,0.540900,0.540400,0.540500,0.540500,0.540500,0.540600,0.539100,0.539100,0.539100,0.540000,0.539900,0.539800,0.539200,0.539200,0.539300,0.539400,0.539600,0.539800,0.540000,0.540000,0.540000,1.000000,0.495600,0.495400,0.495400,1.000000,0.291500,0.291500,0.291600,0.291500,0.291500,0.291400,0.291200,0.291200,0.290400,0.290300,0.290300,0.290200,0.290100,0.290100,0.290100,0.290100,0.290100,0.290000,0.289900,0.289800,0.289800,0.289700,0.289400,0.289200,0.289100,0.289200,0.289200,0.289200,0.289200,0.289200,0.289200,0.288100,0.288100,0.288000,0.288100,0.288100,0.287500,0.287400,0.287400,0.287300,0.287100,0.287000,0.286900,0.286900,0.286900,0.286900,0.286800,0.286700,0.286500,0.286100,0.285800,0.285700,0.285700,0.285600,0.285600,0.285500,0.285400,0.285300,0.285200,0.285200,0.285100,0.285000,0.285000,0.284900,0.284900,0.284800,0.284700,0.284600,0.284500,0.284400,0.284400,0.284200,0.284100,0.283700,0.283600,0.283500,0.283400,0.283400,0.283400,0.283500,0.283600,0.283600,0.283600,0.283400,0.283400,0.283400,0.283400,0.283500,0.283500,0.283500,0.282900,0.282700,0.282700,1.000000,1.000000,1.000000,0.482100,0.482200,0.482400,0.479900,1.000000,0.355000,1.000000,1.000000,1.000000,1.000000,0.482900,0.482200,0.482200,0.482200,0.482200,0.480200,0.478800,0.478300,0.478100,0.478200,0.480100,0.481800,0.481800,0.481800,0.480600,0.478800,0.478800,0.478800,0.478900,0.478900,0.477800,0.477600,1.000000,1.000000,1.000000,1.000000,1.000000,1.000000,0.478000,0.477500,0.477400,0.476100,0.476100,0.476100,0.476100,0.476100,0.476000
1.000000,1.000000,1.000000,1.000000,1.000000,1.000000,1.000000,1.000000,1.000000,1.000000,1.000000,1.000000,1.000000,1.000000,1.000000,1.000000,1.000000,1.000000,1.000000,1.000000,1.000000,1.000000,1.000000,1.000000,1.000000,1.000000,1.000000,1.000000,1.000000,1.000000,1.000000,1.000000,1.000000,1.000000,1.000000,1.000000,1.000000,0.546800,0.546900,0.546900,0.547100,0.547800,0.548900,0.549700,0.549700,0.547900,0.547800,0.547600,0.547600,0.547300,0.545700,0.547300,0.547300,0.548700,0.548700,0.548700,0.546800,0.546500,0.546600,0.546700,0.546800,0.546900,0.545300,0.545300,0.545200,0.545200,0.545100,0.545100,0.545000,0.543200,0.543200,0.543000,0.543000,0.542800,0.542700,0.542400,0.542400,0.543300,0.543100,0.543100,0.541900,0.541900,0.541900,0.542000,0.542000,0.542100,0.542100,0.541400,0.540600,0.540500,0.540500,0.540500,0.540500,0.539100,0.539100,0.539100,0.539400,0.539900,0.539100,0.539000,0.539100,0.539200,0.539400,0.539600,0.538500,0.538400,0.538400,0.537700,1.000000,0.495600,0.495600,1.000000,1.000000,0.291400,0.291400,0.291400,0.291200,0.291000,0.291000,0.290900,0.290700,0.290000,0.290100,0.290300,0.290200,0.290200,0.290200,0.290000,0.289900,0.289800,0.289500,0.289500,0.289400,0.289700,0.289700,0.289600,0.289300,0.289100,0.289100,0.289100,0.289100,0.289200,0.289100,0.289100,0.288000,0.288000,0.288000,0.288100,0.288100,0.287400,0.287400,0.287400,0.287300,0.287100,0.287000,0.286900,0.286900,0.286900,0.286900,0.286800,0.286700,0.286700,0.286600,0.285700,0.285700,0.285600,0.285600,0.285600,0.285600,0.285500,0.285300,0.285300,0.285300,0.285200,0.285200,0.285000,0.285000,0.285000,0.284900,0.284800,0.284700,0.284600,0.284500,0.284400,0.284200,0.284100,0.283800,0.283600,0.283500,0.283400,0.283400,0.283400,0.283400,0.283500,0.283500,0.283400,0.283200,0.283200,0.283300,0.283400,0.283400,0.283500,0.283000,0.282800,0.282700,0.282700,1.000000,1.000000,1.000000,1.000000,1.000000,1.000000,1.000000,0.354900,0.354900,0.354800,0.360400,1.000000,1.000000,1.000000,1.000000,1.000000,1.000000,1.000000,1.000000,1.000000,1.000000,1.000000,1.000000,0.477200,0.481900,1.000000,0.481800,0.478600,0.477500,0.477400,0.477400,0.478800,0.478700,0.477800,0.477700,1.000000,1.000000,1.000000,1.000000,1.000000,0.477700,1.000000,0.477400,0.477300,0.476400,0.476100,0.476100,0.476100,0.476000,0.475800
1.000000,1.000000,1.000000,1.000000,1.000000,1.000000,1.000000,1.000000,1.000000,1.000000,1.000000,1.000000,1.000000,1.000000,1.000000,1.000000,1.000000,1.000000,1.000000,1.000000,1.000000,1.000000,1.000000,1.000000,1.000000,1.000000,1.000000,1.000000,1.000000,1.000000,1.000000,1.000000,1.000000,1.000000,1.000000,1.000000,1.000000,1.000000,0.546900,0.547000,0.547100,0.547300,0.548100,0.548200,0.549600,0.548000,0.547800,0.547500,0.547600,0.545600,0.545500,0.545600,0.547100,0.548700,0.548700,0.547500,0.547200,0.546700,0.546700,0.546700,0.546800,0.546900,0.545100,0.543500,0.543600,0.543600,0.543600,0.545100,0.543400,0.543200,0.543100,0.543000,0.543000,0.542800,0.542800,0.542600,0.543000,0.544400,0.543200,0.541800,0.541800,0.541800,0.541900,0.542000,0.542000,0.542100,0.542000,0.542000,0.540500,0.540500,0.540400,0.540400,0.540300,0.539100,0.539100,0.539200,0.539200,0.539200,0.539000,0.539000,0.539000,0.539000,0.539200,0.539600,0.538400,0.538200,0.537700,0.537600,1.000000,0.495800,0.495700,0.495800,1.000000,0.291300,0.291300,0.291100,0.290900,0.290900,0.290800,0.290700,0.290400,0.289600,0.289700,0.290200,0.290300,0.290200,0.290200,0.290000,0.289900,0.289700,0.289500,0.289400,0.289300,0.289500,0.289600,0.289600,0.289400,0.289100,0.289000,0.289000,0.289100,0.289100,0.289000,0.289000,0.288200,0.288100,0.288100,0.288100,0.288100,0.287400,0.287300,0.287300,0.287200,0.287100,0.287000,0.287000,0.286900,0.286900,0.286900,0.286800,0.286700,0.286600,0.286600,0.285600,0.285600,0.285600,0.285600,0.285600,0.285600,0.285500,0.285400,0.285300,0.285300,0.285300,0.285200,0.285200,0.285200,0.285100,0.285000,0.284900,0.284700,0.284600,0.284500,0.284400,0.284200,0.284100,0.283800,0.283700,0.283500,0.283400,0.283400,0.283400,0.283400,0.283400,0.283400,0.283300,0.283200,0.283200,0.283200,0.283300,0.283400,0.283200,0.282900,0.282800,0.282700,0.282700,1.000000,1.000000,1.000000,1.000000,1.000000,0.357400,0.354800,0.354800,0.354800,0.354800,0.360400,0.363700,1.000000,1.000000,1.000000,1.000000,1.000000,1.000000,1.000000,1.000000,1.000000,1.000000,1.000000,0.477200,0.477200,0.481900,0.480700,0.477600,0.477400,0.477400,0.477400,0.477500,0.477700,0.477700,0.477600,1.000000,1.000000,1.000000,1.000000,1.000000,0.477700,1.000000,0.477400,0.477300,0.477100,0.477000,0.476200,0.476000,0.475800,0.475800
1.000000,1.000000,1.000000,1.000000,1.000000,1.000000,1.000000,1.000000,1.000000,1.000000,1.000000,1.000000,1.000000,1.000000,1.000000,1.000000,1.000000,1.000000,1.000000,1.000000,1.000000,1.000000,1.000000,1.000000,1.000000,1.000000,1.000000,1.000000,1.000000,1.000000,1.000000,1.000000,1.000000,1.000000,1.000000,1.000000,1.000000,1.000000,0.546900,0.547000,0.547300,0.547400,0.547900,0.548000,0.548100,0.548000,0.546800,0.546800,0.545800,1.000000,0.545400,0.545600,0.545600,0.547000,0.547100,0.547100,0.546900,0.546800,0.545900,0.545800,0.545700,0.545600,0.544600,0.543500,0.543500,0.543600,0.543600,0.543600,0.543500,0.541800,0.541800,0.543000,0.543000,0.543000,0.542800,0.542800,0.544200,0.545000,0.543200,0.541700,0.541700,0.541700,0.541800,0.541900,0.542000,0.542000,0.542000,0.541900,0.540400,0.540200,0.540200,0.540100,0.540100,0.539200,0.539200,0.539200,0.539200,0.539100,0.538900,0.538800,0.538700,0.538600,0.538500,0.538400,0.538200,0.538000,0.537600,0.537600,1.000000,0.495900,0.495900,0.495800,1.000000,1.000000,0.291100,0.291000,0.290800,0.290800,0.290700,0.290500,0.289600,0.289600,0.289600,0.289600,0.290300,0.290300,0.290200,0.289900,0.289800,0.289700,0.289400,0.289400,0.289300,0.289300,0.289300,0.289400,0.289200,0.289000,0.289000,0.289000,0.289000,0.289000,0.288900,0.288800,0.288600,0.288300,0.288200,0.288200,0.288200,0.287900,0.287400,0.287300,0.287200,0.287200,0.287000,0.287000,0.286900,0.286900,0.286900,0.286900,0.286700,0.286600,0.286500,0.285500,0.285500,0.285500,0.285500,0.285600,0.285600,0.285600,0.285500,0.285400,0.285300,0.285300,0.285300,0.285300,0.285300,0.285200,0.285000,0.284900,0.284800,0.284600,0.284500,0.284400,0.284100,0.284000,0.283800,0.283700,0.283600,0.283400,0.283400,0.283400,0.283400,0.283400,0.283300,0.283200,0.283100,0.283100,0.283100,0.283200,0.283300,0.281700,0.281600,0.281600,0.281600,0.282600,1.000000,1.000000,1.000000,1.000000,1.000000,1.000000,0.354700,0.354800,0.354800,0.354800,0.360500,0.363600,0.363600,1.000000,0.365000,0.366600,1.000000,1.000000,1.000000,1.000000,1.000000,1.000000,1.000000,1.000000,1.000000,0.480700,0.478000,0.477600,0.477200,0.477100,0.477200,0.477400,0.477500,0.477600,0.477600,0.477600,1.000000,1.000000,1.000000,1.000000,1.000000,0.477600,0.477400,0.477300,0.477000,0.477000,0.476900,0.475800,0.475600,0.475600
1.000000,1.000000,1.000000,1.000000,1.000000,1.000000,1.000000,1.000000,1.000000,1.000000,1.000000,1.000000,1.000000,1.000000,1.000000,1.000000,1.000000,1.000000,1.000000,1.000000,1.000000,1.000000,1.000000,1.000000,1.000000,1.000000,1.000000,1.000000,1.000000,1.000000,1.000000,1.000000,1.000000,1.000000,1.000000,1.000000,1.000000,1.000000,0.548400,0.547200,0.547300,0.547400,0.547600,0.547800,0.548000,0.546800,0.546600,0.546200,0.545200,0.545300,0.545300,0.545400,0.545500,0.545600,0.545700,0.544400,0.544400,0.544200,0.544100,0.544200,0.544200,0.544300,0.543400,0.543500,0.543500,0.543600,0.543600,0.542400,0.542100,0.541400,0.541400,0.541400,0.543000,0.543100,0.544100,0.544300,0.545100,0.545100,0.541600,0.541600,0.541600,0.541700,0.541800,0.541900,0.542000,0.542000,0.542000,0.540600,0.540000,0.540000,0.540100,0.540100,0.540100,0.539800,0.539400,0.539200,0.539100,0.539000,0.538800,0.538700,0.538600,0.538300,0.538100,0.538200,0.538100,0.538000,0.537600,0.537600,1.000000,0.495900,0.495900,0.495200,1.000000,1.000000,0.291000,0.291000,0.290800,0.290700,0.290600,0.289600,0.289600,0.289500,0.289500,0.289500,0.290300,0.290300,0.290100,0.289900,0.289800,0.289700,0.289500,0.289400,0.289200,0.289200,0.289100,0.289000,0.289000,0.288900,0.288900,0.288900,0.289000,0.289000,0.288900,0.288800,0.288600,0.288500,0.288400,0.288300,0.288200,0.288000,0.287900,0.287600,0.287400,0.287300,0.287200,0.287100,0.287100,0.287000,0.287000,0.286900,0.286700,0.286600,0.286500,0.285600,0.285500,0.285500,0.285500,0.285600,0.285700,0.285700,0.285500,0.285400,0.285300,0.285300,0.285300,0.285300,0.285300,0.285300,0.285000,0.284900,0.284700,0.284600,0.284400,0.284100,0.284000,0.283900,0.283800,0.283800,0.283700,0.283500,0.283500,0.283500,0.283400,0.283400,0.283300,0.283200,0.283000,0.283000,0.283000,0.282900,0.282000,0.281600,0.281600,0.281600,0.281600,0.281700,1.000000,0.358300,0.358300,0.358300,0.357800,0.357300,0.354600,0.354600,0.354600,0.354700,0.359300,0.361700,0.363600,0.363600,0.364700,0.366600,0.366700,0.366900,0.366900,0.367000,1.000000,1.000000,1.000000,1.000000,1.000000,1.000000,1.000000,0.477900,0.476800,0.476700,0.476600,0.477400,0.476400,0.477500,0.477500,0.477500,1.000000,1.000000,1.000000,1.000000,1.000000,0.477600,0.476200,0.476700,0.476900,0.476800,0.476600,0.475400,0.475400,0.475400
1.000000,1.000000,1.000000,1.000000,1.000000,1.000000,1.000000,1.000000,1.000000,1.000000,1.000000,1.000000,1.000000,1.000000,1.000000,1.000000,1.000000,1.000000,1.000000,1.000000,1.000000,1.000000,1.000000,1.000000,1.000000,1.000000,1.000000,1.000000,1.000000,1.000000,1.000000,1.000000,1.000000,1.000000,1.000000,1.000000,1.000000,1.000000,0.548400,0.548400,0.548400,0.547500,0.547600,0.547800,0.548000,0.547200,0.546500,0.545200,1.000000,0.545200,0.545200,0.545300,0.545400,0.545600,0.544400,0.544400,0.544300,0.544100,0.544000,0.544100,0.544100,0.544200,0.544300,0.543500,0.543600,0.543600,0.543700,0.542400,0.542300,0.541400,0.541400,0.541400,0.542800,0.542900,0.544100,0.545100,0.545100,0.543000,0.541400,0.541400,0.541400,0.541500,0.541700,0.541800,0.541900,0.541900,0.541900,0.540600,0.539900,0.539900,0.539900,0.540000,0.540100,0.539900,0.539500,0.539200,0.539000,0.538900,0.538700,0.538600,0.538300,0.537800,0.537700,0.537700,0.538000,0.538000,0.537900,0.537700,1.000000,0.495900,0.495200,0.492900,1.000000,1.000000,0.291000,0.291000,0.290800,0.290800,0.290700,0.289700,0.289600,0.289600,0.289600,0.289600,0.290300,0.290300,0.290200,0.290000,0.289800,0.289700,0.289500,0.289400,0.289200,0.289100,0.289100,0.289000,0.288900,0.288900,0.288800,0.288800,0.288900,0.288900,0.288800,0.288700,0.288600,0.288500,0.288400,0.288100,0.288000,0.287900,0.287900,0.287800,0.287400,0.287400,0.287200,0.287200,0.287100,0.287100,0.287000,0.287000,0.286700,0.286600,0.286500,0.286300,0.285500,0.285500,0.285500,0.285600,0.285600,0.285600,0.285500,0.285400,0.285300,0.285300,0.285300,0.285300,0.285300,0.285300,0.285000,0.284900,0.284600,0.284500,0.284300,0.284000,0.283900,0.283900,0.283900,0.283900,0.283900,0.283900,0.283800,0.283600,0.283500,0.283400,0.283300,0.283200,0.283000,0.282900,0.282800,0.282700,0.282400,0.281700,0.281700,0.281700,0.281700,0.281800,1.000000,0.360100,0.360100,0.360100,0.358600,0.357600,0.354400,0.354000,0.353900,0.354700,0.358000,0.360200,0.363600,0.363600,0.364600,0.366600,0.366700,0.366900,0.366900,0.367000,0.368400,0.368400,1.000000,1.000000,1.000000,1.000000,0.478000,0.478000,0.476600,0.476500,0.476400,0.476400,0.476400,0.476400,0.477500,1.000000,1.000000,1.000000,1.000000,1.000000,1.000000,0.476500,0.475600,0.475900,0.476300,0.476600,0.476300,0.475200,0.474400,0.474200
1.000000,1.000000,1.000000,1.000000,1.000000,1.000000,1.000000,1.000000,1.000000,1.000000,1.000000,1.000000,1.000000,1.000000,1.000000,1.000000,1.000000,1.000000,1.000000,1.000000,1.000000,1.000000,1.000000,1.000000,1.000000,1.000000,1.000000,1.000000,1.000000,1.000000,1.000000,0.734200,1.000000,1.000000,1.000000,1.000000,1.000000,0.547900,0.548400,0.548400,0.548300,0.547600,0.547600,0.547600,0.548000,0.548000,0.546900,0.545200,0.545200,0.545100,0.545100,0.545100,0.544500,0.544400,0.544400,0.544300,0.544200,0.544000,0.543900,0.543900,0.543900,0.544100,0.544200,0.544300,0.543700,0.543700,0.543800,0.543800,0.543900,0.543900,0.544000,0.542800,0.542800,0.542800,1.000000,1.000000,0.543000,0.541300,0.541300,0.541300,0.541300,0.541300,0.541600,0.541700,0.541800,0.541900,0.540800,0.540300,0.539900,0.539900,0.539900,0.540000,0.540700,0.539900,0.539500,0.539200,0.539000,0.538900,0.538600,0.538400,0.538000,0.537800,0.537700,0.537700,0.537800,0.538000,0.538000,0.539300,0.537700,0.492800,0.492800,0.492800,1.000000,0.291200,0.291100,0.291000,0.290900,0.290800,0.290800,0.290000,0.289600,0.289600,0.289600,0.289600,0.290300,0.290300,0.290200,0.290100,0.289900,0.289700,0.289400,0.289300,0.289100,0.289000,0.289000,0.288900,0.288900,0.288800,0.288800,0.288800,0.288800,0.288800,0.288700,0.288600,0.288500,0.288400,0.288400,0.288000,0.287900,0.287800,0.287800,0.287700,0.287500,0.287400,0.287200,0.287100,0.287100,0.287100,0.287000,0.287000,0.286800,0.286700,0.286600,0.286300,0.286200,0.285600,0.285600,0.285600,0.285600,0.285600,0.285500,0.285400,0.285400,0.285300,0.285300,0.285300,0.285300,0.285300,0.285000,0.284800,0.284400,0.284300,0.284200,0.283900,0.283800,0.283800,0.283900,0.283900,0.284000,0.284000,0.283900,0.283600,0.283500,0.283400,0.283300,0.283200,0.283000,0.282800,0.282800,0.282600,0.282400,0.282200,0.282000,0.281900,0.281900,1.000000,1.000000,1.000000,1.000000,0.360100,0.360100,0.357400,0.353100,0.353200,0.353200,0.353300,0.358000,0.360200,0.363100,0.364600,1.000000,1.000000,1.000000,0.367000,0.367000,0.368400,1.000000,0.367000,1.000000,1.000000,1.000000,1.000000,0.478100,0.478100,0.478000,0.477700,0.476400,0.476400,0.476400,0.476400,0.476400,1.000000,1.000000,1.000000,1.000000,1.000000,1.000000,0.475400,0.475300,0.475300,0.475500,0.475200,0.475200,0.474000,0.473900,0.473800
1.000000,1.000000,1.000000,1.000000,1.000000,1.000000,1.000000,1.000000,1.000000,1.000000,1.000000,1.000000,1.000000,1.000000,1.000000,1.000000,1.000000,1.000000,1.000000,1.000000,1.000000,1.000000,1.000000,1.000000,1.000000,1.000000,1.000000,1.000000,1.000000,1.000000,1.000000,0.734300,1.000000,1.000000,1.000000,1.000000,1.000000,0.546000,0.546100,0.548200,0.548000,0.547600,0.547600,0.547600,0.548100,0.548200,0.547400,0.545200,0.545200,0.545100,0.545000,0.545100,0.544500,0.544300,0.544300,0.544300,0.544200,0.544000,0.543900,0.543800,0.543800,0.544000,0.544200,0.545300,0.544800,0.543800,0.543800,0.543800,0.543900,0.543900,0.544000,0.544000,0.544000,0.542800,0.542800,1.000000,0.541300,1.000000,0.541200,0.541200,0.541100,0.541100,0.541600,0.541700,0.541800,0.541200,0.540200,0.540100,0.540000,0.539900,0.539900,0.540800,0.540700,0.539600,0.539500,0.539300,0.539100,0.538900,0.538500,0.538200,0.537900,0.537800,0.537800,0.537800,0.537900,0.538000,0.539300,0.539300,0.539300,0.492800,0.492800,0.492800,1.000000,0.291200,0.291100,0.291000,0.290900,0.290900,0.290800,0.290500,0.289700,0.289700,0.289700,0.289700,0.290300,0.290300,0.290200,0.290100,0.289900,0.289800,0.289300,0.289200,0.289000,0.289000,0.289000,0.288900,0.288800,0.288800,0.288700,0.288700,0.288700,0.288800,0.288700,0.288600,0.288500,0.288400,0.288300,0.287700,0.287800,0.287700,0.287700,0.287700,0.287500,0.287400,0.287100,0.287000,0.287000,0.287000,0.287000,0.287000,0.286800,0.286700,0.286600,0.286300,0.286200,0.285700,0.285600,0.285600,0.285600,0.285600,0.285500,0.285400,0.285400,0.285300,0.285300,0.285400,0.285300,0.285300,0.284900,0.284700,0.284400,0.284300,0.284200,0.283900,0.283800,0.283800,0.283900,0.284000,0.284100,0.284100,0.283400,0.283400,0.283400,0.283400,0.283300,0.283200,0.283000,0.282800,0.282700,0.282500,0.282400,0.282300,0.282200,0.282100,0.282100,0.282100,1.000000,1.000000,1.000000,1.000000,1.000000,0.357400,0.353100,0.353100,0.353100,0.353300,0.360100,0.360200,1.000000,1.000000,1.000000,1.000000,1.000000,1.000000,1.000000,0.368400,1.000000,0.367000,1.000000,1.000000,1.000000,1.000000,0.478200,0.478200,0.478000,0.477500,0.477400,0.476400,0.476400,0.476400,0.476400,1.000000,1.000000,1.000000,1.000000,1.000000,1.000000,1.000000,0.475200,0.475100,0.475100,0.475000,0.474100,0.473900,0.473800,0.473800
1.000000,1.000000,1.000000,1.000000,1.000000,1.000000,1.000000,1.000000,1.000000,1.000000,1.000000,1.000000,1.000000,1.000000,1.000000,1.000000,1.000000,1.000000,1.000000,1.000000,1.000000,1.000000,1.000000,1.000000,1.000000,1.000000,1.000000,1.000000,1.000000,1.000000,1.000000,1.000000,1.000000,1.000000,1.000000,1.000000,1.000000,1.000000,0.545800,0.545900,0.546300,0.546700,0.547500,0.547500,0.548600,0.548600,0.548600,0.545300,0.545200,0.545200,0.545000,1.000000,0.544400,1.000000,0.544200,0.544200,0.544400,0.544100,0.543900,0.543800,0.543700,0.544000,0.545600,0.546200,0.546200,0.545000,0.543600,0.543700,0.543900,0.543900,0.544000,0.544000,0.544000,0.542600,0.541300,0.541100,1.000000,0.541100,0.541000,0.541000,0.540800,0.540700,0.540800,0.541000,0.540100,0.539200,0.539200,0.540200,0.540200,0.540300,0.540600,0.540700,0.539700,0.539600,0.539500,0.539300,0.539200,0.539000,0.538300,0.538000,0.537800,0.537800,0.537800,0.537900,0.538000,0.538100,0.539400,0.539400,1.000000,1.000000,0.492700,0.492700,1.000000,0.291200,0.291200,0.291100,0.290900,0.290800,0.290800,0.290600,0.289900,0.289800,0.289800,0.289900,0.290300,0.290400,0.290300,0.290300,0.290000,0.289900,0.289700,0.289100,0.289000,0.288900,0.288900,0.288800,0.288800,0.288600,0.288600,0.288600,0.288600,0.288600,0.288600,0.288600,0.288400,0.288300,0.287200,0.287200,0.287300,0.287400,0.287500,0.287500,0.287400,0.287300,0.287000,0.287000,0.286900,0.287000,0.287000,0.287000,0.286800,0.286700,0.286500,0.286200,0.286000,0.285700,0.285600,0.285600,0.285600,0.285600,0.285500,0.285500,0.285500,0.285400,0.285400,0.285400,0.285400,0.285300,0.284800,0.284700,0.284400,0.284300,0.284200,0.283900,0.283800,0.283800,0.283800,0.284000,0.284100,0.283300,0.283300,0.283300,0.283400,0.283300,0.283300,0.283200,0.283000,0.282800,0.282700,0.282500,0.282400,0.282300,0.282300,0.282200,0.282200,0.282300,1.000000,0.479300,0.479300,0.479300,1.000000,1.000000,0.354100,0.353100,0.353100,1.000000,0.481100,0.481000,0.481000,1.000000,0.479800,0.479600,0.480300,0.480400,0.480500,0.480500,1.000000,0.368400,1.000000,1.000000,0.478400,0.478300,0.478300,0.478300,0.477900,0.477300,0.477400,0.477400,0.477500,0.477600,0.477600,1.000000,1.000000,1.000000,1.000000,1.000000,1.000000,0.475100,0.475000,0.475000,0.474900,0.474300,0.474100,0.473900,0.473800,0.473800
1.000000,1.000000,1.000000,0.756500,0.756500,1.000000,1.000000,1.000000,1.000000,1.000000,1.000000,1.000000,1.000000,1.000000,1.000000,1.000000,1.000000,1.000000,1.000000,1.000000,1.000000,1.000000,1.000000,1.000000,1.000000,0.755400,0.755400,0.755400,0.748600,1.000000,1.000000,1.000000,1.000000,1.000000,1.000000,1.000000,0.545700,1.000000,0.545800,0.545900,0.546000,0.546000,0.547300,0.547500,0.548600,0.548600,0.548700,0.545400,0.545300,0.545200,0.545100,0.544600,0.544300,0.544200,0.544200,0.544200,0.544200,0.544100,0.544000,0.543800,0.543700,0.545400,0.545800,0.546100,0.545100,0.545000,0.543500,0.541700,0.541700,0.541600,0.541800,0.542700,0.542700,0.542100,0.541000,0.541000,0.541000,0.541100,0.541000,0.540900,0.540700,0.540500,0.540300,0.540200,0.539000,0.539000,0.539100,0.540300,0.540400,0.540500,0.540500,0.539800,0.539700,0.539600,0.539600,0.539400,0.539300,0.539200,0.537600,0.537600,0.537600,0.537700,0.537800,0.537800,0.538000,0.538100,0.539500,0.539500,1.000000,1.000000,0.492700,0.492600,1.000000,0.291300,0.291200,0.291000,0.290800,0.290600,0.290500,0.290000,0.289900,0.289800,0.289900,0.290000,0.290400,0.290400,0.290400,0.290300,0.290000,0.289900,0.289700,0.289000,0.288900,0.288800,0.288800,0.288800,0.288700,0.288600,0.288500,0.288500,0.288600,0.288600,0.288600,0.288600,0.288200,0.287200,0.287200,0.287200,0.287200,0.287300,0.287400,0.287400,0.287400,0.287300,0.287100,0.287000,0.287000,0.287000,0.287000,0.287000,0.286800,0.286700,0.286500,0.286000,0.285900,0.285600,0.285600,0.285500,0.285500,0.285600,0.285600,0.285600,0.285500,0.285500,0.285500,0.285400,0.285400,0.284900,0.284700,0.284600,0.284400,0.284300,0.284200,0.283800,0.283800,0.283700,0.283800,0.283900,0.283200,0.283200,0.283200,0.283200,0.283200,0.283200,0.283200,0.283200,0.283000,0.282800,0.282700,0.282500,0.282500,0.282500,0.282500,0.282500,0.282500,1.000000,1.000000,0.479300,0.479300,0.479300,0.479200,1.000000,1.000000,0.353000,0.353000,0.479800,0.481000,0.481000,0.480900,0.480800,0.479400,0.479400,0.479300,0.480500,0.480500,0.480600,1.000000,1.000000,1.000000,0.477600,0.477600,0.478500,0.478400,0.478400,0.477000,0.477000,0.477100,0.477300,0.477600,0.477600,0.477700,1.000000,1.000000,1.000000,1.000000,1.000000,1.000000,1.000000,0.474800,0.474700,0.474300,0.474200,0.474100,0.473900,0.473900,0.473900
1.000000,1.000000,1.000000,0.756500,0.756500,0.756500,1.000000,1.000000,1.000000,1.000000,1.000000,1.000000,1.000000,1.000000,1.000000,1.000000,1.000000,1.000000,1.000000,1.000000,1.000000,1.000000,1.000000,1.000000,1.000000,1.000000,0.754500,0.755400,1.000000,1.000000,1.000000,1.000000,1.000000,1.000000,1.000000,1.000000,1.000000,1.000000,0.547300,0.545900,0.545900,0.545900,0.548300,0.548500,0.548600,0.548700,0.548600,0.546500,0.546300,0.545300,0.544900,0.544600,0.544400,0.544200,1.000000,0.544200,0.544200,0.544200,0.544100,0.544000,1.000000,0.545100,0.545900,0.545600,0.545000,0.542900,0.542800,0.541700,0.541700,0.541500,0.541400,0.540400,0.540300,0.540300,0.540400,0.540700,0.540900,0.541000,0.541000,0.540900,0.540200,0.540200,0.540100,0.539000,0.539000,0.539000,0.539000,0.540400,0.540400,0.540400,0.538600,0.538600,0.538500,0.538100,0.537900,0.538100,0.539100,0.539000,0.537500,0.537600,0.537600,0.537700,0.537700,0.537800,0.537900,0.538200,0.539500,0.539500,1.000000,0.492900,1.000000,0.492700,1.000000,1.000000,0.291200,0.291000,0.290700,0.290600,0.290400,0.290000,0.289900,0.289800,0.289900,0.290200,0.290300,0.290400,0.290400,0.290200,0.289900,0.289700,0.289600,0.289000,0.288800,0.288700,0.288700,0.288700,0.288600,0.288500,0.288400,0.288400,0.288400,0.288500,0.288400,0.288000,0.287800,0.287300,0.287200,0.287200,0.287200,0.287300,0.287300,0.287300,0.287300,0.287300,0.287200,0.287100,0.287100,0.287000,0.287000,0.286900,0.286800,0.286700,0.286400,0.285700,0.285700,0.285600,0.285500,0.285500,0.285500,0.285500,0.285600,0.285600,0.285600,0.285600,0.285500,0.285500,0.284700,0.284700,0.284600,0.284600,0.284400,0.284300,0.284200,0.283800,0.283800,0.283800,0.283800,0.283800,0.283200,0.283100,0.283100,0.283100,0.283100,0.283100,0.283100,0.283100,0.282900,0.282700,0.282600,0.282400,0.282500,0.282500,0.282600,0.282700,0.282700,0.282800,1.000000,0.479300,0.479300,0.479300,0.480900,0.480900,1.000000,0.353000,0.353000,0.479800,0.479800,0.481000,0.480900,0.480900,0.479300,0.479300,0.479300,0.480600,0.480600,0.480600,1.000000,1.000000,1.000000,0.478500,0.478500,0.478500,0.478500,0.478500,0.477000,0.477000,0.477000,0.477100,0.477700,0.477700,1.000000,1.000000,1.000000,1.000000,1.000000,1.000000,1.000000,1.000000,1.000000,0.474600,0.474300,0.474200,0.474100,0.474000,0.474200,0.474400
1.000000,1.000000,1.000000,1.000000,1.000000,0.754500,0.752000,1.000000,1.000000,1.000000,1.000000,1.000000,1.000000,1.000000,1.000000,1.000000,1.000000,1.000000,1.000000,1.000000,1.000000,1.000000,1.000000,1.000000,1.000000,1.000000,1.000000,1.000000,1.000000,1.000000,1.000000,1.000000,1.000000,1.000000,1.000000,1.000000,1.000000,0.547400,0.547400,0.546000,0.545800,0.545800,0.547900,0.548200,0.547600,0.547500,0.547400,0.546600,0.546500,0.545300,0.544600,0.544700,0.544600,0.545300,1.000000,0.545200,0.544200,0.544200,0.544100,1.000000,0.544200,0.544400,0.544600,0.544900,0.542800,0.542800,0.542800,0.541700,0.541600,0.541500,0.541400,0.541400,0.540300,0.540300,0.540400,0.540500,0.540800,0.541000,0.541000,0.541000,0.540200,0.540100,0.540100,0.539000,0.539000,0.539000,0.540500,0.540500,0.540400,0.540300,0.538600,0.538500,0.538400,0.538100,0.537700,0.537400,0.537400,0.537400,0.537400,0.537600,0.537600,0.537700,0.537700,0.536400,0.536400,0.537500,0.538300,0.539500,1.000000,0.493700,0.493000,0.492800,1.000000,1.000000,0.291200,0.291000,0.290700,0.290500,0.290400,0.289900,0.289800,0.289700,0.289700,0.289900,0.290100,0.290300,0.290000,0.289900,0.289600,0.289500,0.289400,0.289100,0.288800,0.288600,0.288600,0.288600,0.288600,0.288400,0.288400,0.288400,0.288400,0.288400,0.288100,0.287900,0.287800,0.287700,0.287600,0.287400,0.287300,0.287200,0.287200,0.287200,0.287200,0.287200,0.287200,0.287200,0.287100,0.287000,0.286900,0.286800,0.286800,0.286700,0.285800,0.285600,0.285600,0.285500,0.285400,0.285400,0.285400,0.285400,0.285400,0.285500,0.285500,0.285000,0.284800,0.284600,0.284600,0.284600,0.284500,0.284400,0.284300,0.284000,0.283900,0.283800,0.283800,0.283800,0.283800,0.283800,0.283100,0.283100,0.283000,0.282900,0.283000,0.283000,0.283000,0.282900,0.282800,0.282600,0.282500,0.282400,0.282400,0.282500,0.282700,0.282800,0.283000,1.000000,1.000000,0.479300,0.479300,0.480800,0.481700,0.481700,1.000000,0.349300,0.351200,1.000000,0.479900,0.481000,0.481000,0.480900,0.480800,0.479300,0.479300,0.480800,0.480800,0.480800,0.480800,1.000000,1.000000,1.000000,0.478400,0.478300,0.478500,0.477600,0.476800,0.476800,0.476800,0.477700,0.477800,0.477800,0.477800,1.000000,1.000000,1.000000,1.000000,1.000000,1.000000,1.000000,0.474600,0.474600,0.474300,0.474200,0.474100,0.474100,0.474800,0.474500
1.000000,1.000000,1.000000,0.756600,0.756600,0.753400,0.753400,1.000000,1.000000,1.000000,1.000000,1.000000,1.000000,1.000000,1.000000,1.000000,1.000000,1.000000,1.000000,1.000000,1.000000,1.000000,1.000000,1.000000,1.000000,1.000000,1.000000,1.000000,1.000000,1.000000,1.000000,1.000000,1.000000,1.000000,1.000000,1.000000,1.000000,0.547400,0.547400,0.546500,1.000000,0.547400,0.547400,0.547500,0.547500,0.547400,0.547200,0.546600,0.545400,0.544400,0.544500,0.544700,0.544900,0.546600,0.546600,0.545200,0.544500,0.544200,1.000000,1.000000,0.544200,0.544300,0.544000,0.543100,0.541400,0.541400,0.542800,0.542800,0.542800,0.541500,0.541400,0.541300,0.540800,0.540400,0.540400,0.540500,0.540900,0.541100,0.541100,0.540200,0.540100,0.540100,0.540100,0.539000,0.539000,0.540500,0.540500,0.540500,0.540400,0.540300,0.539000,0.538400,0.538400,0.537700,0.537500,0.537300,0.537300,0.537400,0.537400,0.537600,0.537600,0.537700,0.537700,0.536300,0.536300,0.536300,0.537100,0.538400,0.538400,0.494200,0.494200,0.493000,1.000000,1.000000,0.291200,0.291000,0.290800,0.290600,0.290400,0.289900,0.289800,0.289700,0.289700,0.289700,0.289800,0.290000,0.289800,0.289700,0.289600,0.289500,0.289300,0.289100,0.288900,0.288600,0.288600,0.288600,0.288600,0.288400,0.288400,0.288300,0.288300,0.288200,0.288000,0.287900,0.287800,0.287700,0.287600,0.287400,0.287400,0.287200,0.287200,0.287100,0.287000,0.287000,0.287000,0.287100,0.287100,0.286800,0.286800,0.286800,0.286700,0.286700,0.285700,0.285600,0.285600,0.285500,0.285400,0.285400,0.285400,0.285400,0.285400,0.285400,0.285300,0.284900,0.284800,0.284600,0.284600,0.284500,0.284400,0.284400,0.284000,0.283900,0.283800,0.283800,0.283800,0.283800,0.283800,0.283700,0.283100,0.283100,0.282900,0.282900,0.282900,0.282900,0.282900,0.282800,0.282700,0.282600,0.282500,0.282400,0.282400,0.282400,0.282700,0.282900,0.283000,1.000000,1.000000,1.000000,0.479300,0.480700,0.481700,0.481700,1.000000,0.349300,0.349300,1.000000,0.480000,0.481000,0.481000,0.480900,0.480900,0.480800,0.480800,0.481000,0.480900,0.480900,0.480800,0.480800,1.000000,1.000000,1.000000,0.478300,0.477500,0.477400,0.476700,0.476700,0.476700,0.477700,0.477700,0.477700,1.000000,1.000000,1.000000,1.000000,1.000000,1.000000,1.000000,1.000000,0.476300,0.474600,0.474300,0.474200,0.475500,0.475100,0.474900,0.474600
1.000000,1.000000,1.000000,0.756600,1.000000,1.000000,0.750500,0.750500,1.000000,1.000000,1.000000,1.000000,1.000000,1.000000,1.000000,1.000000,1.000000,1.000000,1.000000,1.000000,1.000000,1.000000,1.000000,1.000000,1.000000,1.000000,1.000000,0.751800,0.751800,0.751300,1.000000,1.000000,1.000000,1.000000,1.000000,1.000000,1.000000,1.000000,1.000000,0.546500,1.000000,1.000000,0.547400,0.547400,0.547400,0.547300,0.547100,0.546800,0.545400,0.544300,0.544400,0.544600,0.546600,0.546600,0.546600,0.545300,0.544500,0.544300,1.000000,1.000000,0.544000,0.544100,0.543300,0.541500,0.541200,0.541200,0.541400,0.542800,0.542800,0.542700,0.542100,0.542600,0.542600,0.541600,0.540600,0.540600,0.541000,0.541300,0.540300,0.540200,0.540100,0.540100,0.540200,0.540200,0.540300,0.540400,0.540500,0.540400,0.540300,0.540300,0.539000,0.538400,0.538300,0.537300,0.537300,0.537300,0.537300,0.537400,0.537400,0.537600,0.537800,0.537900,0.537900,0.536300,0.536300,0.536200,0.536600,0.537000,0.537000,0.494200,0.494200,0.494200,1.000000,1.000000,0.291200,0.291000,0.290700,0.290600,0.290500,0.290300,0.290000,0.289700,0.289600,0.289600,0.289600,0.289700,0.289700,0.289600,0.289400,0.289300,0.289300,0.289100,0.289000,0.288400,0.288400,0.288400,0.288400,0.288400,0.288300,0.288300,0.288100,0.288000,0.287900,0.287800,0.287700,0.287700,0.287600,0.287500,0.287400,0.287100,0.287000,0.286900,0.286800,0.286700,0.286600,0.286600,0.286600,0.286600,0.286600,0.286600,0.286700,0.286700,0.285700,0.285700,0.285600,0.285500,0.285400,0.285400,0.285300,0.285300,0.285200,0.285200,0.285000,0.284800,0.284800,0.284600,0.284600,0.284600,0.284400,0.284300,0.283900,0.283800,0.283800,0.283800,0.283800,0.283800,0.283800,0.283700,0.283100,0.283000,0.282900,0.282800,0.282800,0.282800,0.282800,0.282700,0.282600,0.282600,0.282500,0.282300,0.282300,0.282000,0.281900,0.281900,0.281900,0.282100,0.283200,1.000000,0.477400,0.479400,0.480700,0.477500,1.000000,0.351500,0.351500,1.000000,0.480000,0.481000,0.481000,0.481000,0.480900,0.481000,0.481100,0.481100,0.481000,0.480900,0.480800,0.479200,1.000000,1.000000,1.000000,1.000000,0.477500,0.477500,0.476500,0.476300,0.476300,0.477300,0.477600,0.477600,1.000000,1.000000,1.000000,1.000000,1.000000,1.000000,1.000000,1.000000,0.476800,0.476200,0.475900,0.475800,0.475600,0.475100,0.475000,0.474600
