1.000000,1.000000,1.000000,1.000000,1.000000,1.000000,1.000000,0.572100,1.000000,1.000000,1.000000,1.000000,1.000000,1.000000,1.000000,1.000000,1.000000,1.000000,1.000000,1.000000,0.558800,1.000000,1.000000,1.000000,1.000000,1.000000,0.560300,1.000000,1.000000,1.000000,0.559900,1.000000,1.000000,1.000000,1.000000,1.000000,1.000000,1.000000,1.000000,1.000000,1.000000,1.000000,1.000000,1.000000,1.000000,1.000000,1.000000,1.000000,1.000000,1.000000,1.000000,1.000000,1.000000,0.554300,0.554300,0.555600,0.556600,0.556600,0.556400,0.556400,0.555400,0.555000,0.553500,1.000000,1.000000,1.000000,1.000000,1.000000,1.000000,1.000000,1.000000,1.000000,1.000000,1.000000,1.000000,1.000000,1.000000,0.552800,0.552900,0.552900,0.552900,0.552900,0.551800,0.551800,0.551800,1.000000,0.552400,0.552500,0.552500,0.551600,0.549700,0.549100,1.000000,0.549100,0.550100,0.548900,0.548800,0.548800,0.548700,0.548600,0.548500,0.548100,0.548100,0.548100,0.548800,1.000000,0.548900,1.000000,1.000000,0.507200,0.506500,0.504700,0.504700,0.504700,0.506100,1.000000,0.509500,0.508400,0.508000,0.507900,0.507600,0.505800,0.505800,0.505800,0.503800,0.501300,0.501300,0.502900,0.504800,0.505500,0.503800,0.502600,0.502600,0.501500,0.501200,0.501100,0.500700,0.500600,0.500600,0.500500,1.000000,1.000000,1.000000,1.000000,1.000000,1.000000,1.000000,0.504800,0.505600,0.505700,0.505700,0.505700,0.505700,0.504900,0.503200,0.503200,1.000000,0.503200,1.000000,1.000000,1.000000,1.000000,1.000000,1.000000,0.506300,0.503100,1.000000,1.000000,0.502000,0.502000,0.502000,0.502000,1.000000,1.000000,1.000000,1.000000,1.000000,0.498700,0.500000,0.500700,1.000000,0.500000,0.500000,0.499800,1.000000,1.000000,0.496400,0.496200,0.495700,0.495200,1.000000,1.000000,1.000000,1.000000,1.000000,1.000000,1.000000,0.539000,0.539000,1.000000,1.000000,1.000000,1.000000,1.000000,1.000000,1.000000,1.000000,1.000000,1.000000,1.000000,1.000000,1.000000,1.000000,1.000000,1.000000,1.000000,1.000000,1.000000,0.534800,0.534800,1.000000,1.000000,1.000000,1.000000,1.000000,1.000000,1.000000,1.000000,1.000000,1.000000,1.000000,1.000000,1.000000,1.000000,1.000000,1.000000,1.000000,1.000000,1.000000,1.000000,1.000000,1.000000,1.000000,1.000000,1.000000,1.000000,0.485600,0.483900,0.483100,0.483100,0.483100,0.483100,0.481600,0.480700,0.480700,0.479400
1.000000,1.000000,1.000000,1.000000,1.000000,1.000000,1.000000,0.570400,1.000000,1.000000,1.000000,1.000000,1.000000,1.000000,1.000000,1.000000,1.000000,1.000000,1.000000,1.000000,0.558800,0.558800,0.560500,1.000000,1.000000,1.000000,1.000000,1.000000,1.000000,1.000000,1.000000,1.000000,1.000000,1.000000,1.000000,1.000000,1.000000,1.000000,1.000000,1.000000,1.000000,1.000000,1.000000,1.000000,1.000000,1.000000,1.000000,1.000000,1.000000,1.000000,1.000000,1.000000,0.554400,0.554400,0.555700,0.556600,0.556600,0.556500,0.556400,0.556300,0.555400,0.553400,0.553500,0.553400,1.000000,1.000000,1.000000,1.000000,1.000000,0.550800,0.550200,1.000000,1.000000,1.000000,1.000000,1.000000,0.552700,0.552700,0.552800,0.552900,0.552900,0.552900,0.552000,0.551700,0.551700,0.551600,0.551600,0.551300,0.551100,0.550200,0.549000,0.549000,0.549100,0.549100,0.550200,0.550100,0.548800,0.548700,0.548700,0.548500,0.548400,0.548100,0.548100,0.548100,0.548700,0.548900,1.000000,1.000000,1.000000,0.505200,0.504800,0.504700,0.504700,0.504800,0.505800,1.000000,0.509100,0.508200,0.508200,1.000000,0.505800,0.505900,0.505900,0.505900,0.503700,0.501300,0.501300,0.501300,0.504000,0.503900,0.503700,0.502900,0.502600,0.501700,0.501300,0.501100,0.500700,0.500600,0.500500,0.500500,1.000000,1.000000,1.000000,1.000000,1.000000,1.000000,0.504600,0.504600,0.505700,0.505700,0.505600,0.504800,0.504400,0.503100,0.501900,0.501900,0.501800,0.503200,1.000000,1.000000,1.000000,1.000000,0.506300,0.506300,0.506300,0.502600,0.502600,0.501900,0.501800,0.501900,0.501900,0.502000,0.502200,0.501600,1.000000,1.000000,1.000000,1.000000,0.498600,1.000000,0.499200,0.498100,0.496200,1.000000,1.000000,1.000000,0.494900,0.494900,0.495100,1.000000,1.000000,1.000000,1.000000,1.000000,1.000000,1.000000,1.000000,1.000000,1.000000,1.000000,1.000000,1.000000,1.000000,1.000000,0.494300,0.494300,0.494300,0.490600,0.490400,1.000000,1.000000,1.000000,0.452600,1.000000,1.000000,1.000000,1.000000,1.000000,0.534800,1.000000,1.000000,1.000000,1.000000,1.000000,1.000000,1.000000,1.000000,1.000000,1.000000,1.000000,1.000000,1.000000,1.000000,1.000000,1.000000,1.000000,1.000000,1.000000,1.000000,1.000000,1.000000,1.000000,1.000000,1.000000,1.000000,1.000000,0.483400,0.483200,0.483100,1.000000,1.000000,1.000000,1.000000,0.480600,1.000000,0.480700
1.000000,1.000000,1.000000,1.000000,1.000000,1.000000,1.000000,0.567000,1.000000,1.000000,1.000000,1.000000,1.000000,1.000000,1.000000,1.000000,1.000000,1.000000,1.000000,1.000000,0.558800,1.000000,1.000000,1.000000,1.000000,1.000000,1.000000,1.000000,1.000000,1.000000,1.000000,1.000000,1.000000,1.000000,1.000000,1.000000,1.000000,0.559800,0.559800,1.000000,1.000000,1.000000,1.000000,1.000000,1.000000,1.000000,1.000000,1.000000,1.000000,1.000000,1.000000,1.000000,1.000000,0.556600,0.556600,0.556600,0.555000,0.555000,0.555100,0.555200,0.555300,0.553400,0.553400,0.553400,0.553300,1.000000,1.000000,1.000000,1.000000,0.550500,0.550200,0.550200,0.549900,1.000000,1.000000,1.000000,1.000000,0.552700,0.552700,0.552800,0.551600,0.551600,0.551700,0.551700,0.551600,0.551400,0.551300,0.551100,0.550600,0.549000,0.545900,0.545900,0.545900,0.548500,1.000000,0.550200,0.548700,0.548700,0.548600,0.548500,0.548400,0.548200,0.548100,0.548100,0.549000,0.549000,1.000000,1.000000,0.505300,0.505100,0.504800,0.504700,0.504700,0.505500,0.505800,0.505800,0.506800,0.505900,0.505900,0.505800,0.505800,0.505900,0.505900,0.505900,0.505900,0.501300,0.501300,0.501300,0.503000,0.503100,0.503400,0.502500,0.502000,0.501900,0.501500,0.501100,0.500800,0.500600,0.500500,0.500500,1.000000,1.000000,1.000000,1.000000,1.000000,1.000000,0.504600,0.504600,0.504600,0.505500,0.505200,0.504500,0.503000,0.501800,0.500900,0.500400,0.499200,0.499200,1.000000,1.000000,0.501300,1.000000,0.506300,0.506300,1.000000,0.501900,0.501800,0.500300,0.500400,0.500400,0.501800,0.501800,0.501900,0.499400,0.495600,1.000000,1.000000,1.000000,0.497500,0.497500,0.497500,0.496200,0.494900,1.000000,0.494100,0.494100,0.494000,0.494100,1.000000,1.000000,1.000000,1.000000,1.000000,1.000000,1.000000,1.000000,1.000000,1.000000,1.000000,1.000000,1.000000,0.491700,1.000000,1.000000,0.494300,0.494300,0.494300,0.490600,0.490400,0.490400,0.488200,1.000000,0.452600,1.000000,1.000000,1.000000,1.000000,1.000000,1.000000,1.000000,1.000000,1.000000,1.000000,1.000000,1.000000,1.000000,1.000000,1.000000,1.000000,1.000000,1.000000,1.000000,1.000000,1.000000,1.000000,1.000000,1.000000,1.000000,1.000000,1.000000,1.000000,1.000000,1.000000,1.000000,1.000000,1.000000,1.000000,0.483200,0.483100,0.483100,0.483100,1.000000,0.480600,0.480600,1.000000,1.000000
1.000000,1.000000,1.000000,1.000000,1.000000,1.000000,1.000000,0.566900,1.000000,1.000000,1.000000,1.000000,1.000000,1.000000,1.000000,1.000000,1.000000,1.000000,1.000000,1.000000,1.000000,0.558800,0.558800,0.564300,0.564200,0.564700,1.000000,1.000000,1.000000,1.000000,1.000000,1.000000,1.000000,1.000000,1.000000,1.000000,1.000000,0.559800,0.559800,1.000000,1.000000,1.000000,1.000000,1.000000,1.000000,1.000000,1.000000,0.554500,1.000000,1.000000,1.000000,1.000000,0.558600,0.556600,0.556600,0.553000,0.553100,0.553200,0.553300,0.553300,1.000000,1.000000,1.000000,1.000000,1.000000,1.000000,1.000000,1.000000,1.000000,1.000000,0.551100,1.000000,1.000000,1.000000,1.000000,0.552500,1.000000,0.552600,1.000000,0.551600,0.551600,0.551600,0.551600,0.551600,0.551600,0.551300,0.551000,0.551000,0.549000,0.546200,0.545900,0.545900,0.545900,0.547300,1.000000,0.548500,0.548500,0.548500,0.548500,0.548500,0.548400,0.548200,0.548200,0.549200,0.549100,0.549000,1.000000,0.505200,0.505200,0.505100,0.505100,0.504800,0.505400,0.505400,0.505600,0.505800,0.505900,0.505900,0.505800,0.505800,0.503300,0.503300,0.504000,0.506000,0.506000,0.502900,0.502500,0.502800,0.503100,0.503100,0.503100,0.502000,0.501900,0.501900,0.501900,0.502000,0.502000,0.502100,0.502100,1.000000,1.000000,1.000000,1.000000,1.000000,1.000000,0.504500,0.504500,0.504600,0.504600,0.505100,0.504100,0.504200,0.501000,0.500900,0.500000,0.499300,0.499200,0.499200,0.500600,0.501200,1.000000,1.000000,1.000000,1.000000,1.000000,1.000000,0.499300,0.499300,0.497800,0.498500,0.498500,0.498300,0.498100,0.495300,0.494800,0.494700,1.000000,1.000000,1.000000,0.495000,0.495000,0.495000,0.494900,1.000000,0.494100,0.494100,0.490600,0.490600,0.490700,1.000000,1.000000,1.000000,1.000000,1.000000,1.000000,1.000000,0.493600,1.000000,0.493500,1.000000,0.491700,1.000000,0.491700,1.000000,0.494300,0.494200,0.494200,0.492600,0.490400,0.490400,0.488200,1.000000,1.000000,0.452500,1.000000,1.000000,1.000000,1.000000,1.000000,1.000000,1.000000,1.000000,1.000000,1.000000,1.000000,1.000000,1.000000,1.000000,1.000000,1.000000,1.000000,1.000000,1.000000,1.000000,1.000000,1.000000,1.000000,1.000000,1.000000,0.522000,0.519700,0.519700,0.519700,1.000000,1.000000,1.000000,1.000000,0.483100,0.484200,0.484000,0.482000,0.482000,0.480500,0.480500,1.000000,1.000000
1.000000,1.000000,1.000000,1.000000,1.000000,1.000000,1.000000,1.000000,1.000000,1.000000,1.000000,0.559400,0.559400,1.000000,1.000000,1.000000,1.000000,1.000000,1.000000,1.000000,1.000000,1.000000,1.000000,0.566000,0.566000,0.564700,1.000000,1.000000,1.000000,1.000000,1.000000,1.000000,1.000000,1.000000,1.000000,1.000000,1.000000,1.000000,0.559700,1.000000,1.000000,1.000000,1.000000,1.000000,1.000000,0.554500,0.554500,1.000000,1.000000,1.000000,1.000000,1.000000,0.557500,0.556600,1.000000,1.000000,0.553200,0.553300,0.553200,0.553100,0.553100,0.553100,1.000000,1.000000,1.000000,0.549600,0.549700,0.549900,1.000000,0.551000,0.551000,0.551900,0.551900,0.552000,1.000000,1.000000,1.000000,0.552600,1.000000,0.551600,0.551600,0.551600,0.551600,1.000000,1.000000,0.550800,0.550700,0.549100,0.546000,0.545800,0.545800,0.546800,0.549100,0.548800,0.548600,0.548500,0.548500,1.000000,0.548400,0.548400,0.548400,0.549400,0.550500,0.550300,0.547500,1.000000,1.000000,1.000000,1.000000,0.505100,0.505100,0.505200,0.505300,0.505400,0.505500,0.505700,0.505800,0.505800,0.505800,0.505800,0.503300,0.503300,0.503300,0.503900,0.506000,0.503200,0.503200,0.503100,0.503100,0.503100,0.503100,1.000000,0.501600,0.501800,0.501900,0.502000,0.502000,0.502000,0.502000,0.500500,0.499600,0.499600,1.000000,1.000000,1.000000,0.502300,0.502200,0.502200,0.502200,0.502200,0.502300,0.500700,0.499300,0.499100,0.499200,0.499200,1.000000,1.000000,0.500600,0.500700,0.500800,0.500800,0.500700,1.000000,1.000000,1.000000,1.000000,1.000000,0.497600,0.497600,0.498100,0.498100,0.495900,0.495200,0.495000,0.494800,0.494800,0.494900,1.000000,1.000000,0.495000,0.495000,1.000000,1.000000,1.000000,0.494200,0.491300,0.490700,0.491500,0.492000,1.000000,0.490600,0.490500,0.489500,1.000000,0.489300,0.493500,1.000000,0.493400,0.492900,0.491700,1.000000,0.491800,0.491800,0.492600,0.492700,0.494200,0.494200,0.491000,0.490200,0.488200,1.000000,0.451900,0.452500,0.452700,1.000000,1.000000,1.000000,1.000000,1.000000,1.000000,1.000000,1.000000,1.000000,1.000000,1.000000,1.000000,1.000000,1.000000,1.000000,1.000000,1.000000,1.000000,1.000000,1.000000,1.000000,1.000000,1.000000,1.000000,1.000000,0.522100,0.519800,0.519800,0.521300,1.000000,1.000000,1.000000,1.000000,0.484200,0.484200,0.484200,1.000000,1.000000,1.000000,1.000000,1.000000
1.000000,1.000000,1.000000,1.000000,1.000000,1.000000,1.000000,1.000000,1.000000,1.000000,1.000000,1.000000,0.559400,1.000000,1.000000,1.000000,1.000000,1.000000,1.000000,1.000000,1.000000,1.000000,1.000000,0.564600,0.564600,0.561700,1.000000,1.000000,1.000000,1.000000,1.000000,1.000000,1.000000,1.000000,0.558100,0.559300,1.000000,0.559300,0.559200,1.000000,1.000000,1.000000,1.000000,0.560800,0.559700,0.554500,0.554500,1.000000,1.000000,1.000000,1.000000,1.000000,0.554700,0.553100,1.000000,1.000000,0.553900,0.553800,0.553200,0.553100,0.553000,0.553000,1.000000,1.000000,0.549600,0.549600,0.552400,0.552500,0.552600,1.000000,1.000000,1.000000,0.552000,1.000000,1.000000,1.000000,1.000000,1.000000,0.553400,0.551500,0.551600,0.551600,0.551800,0.551800,1.000000,0.549100,0.549000,0.547600,0.545800,0.545800,0.546700,0.548000,0.549100,0.549000,0.548800,0.548600,1.000000,0.545900,0.546900,0.547900,0.549100,0.550500,0.550500,0.550400,0.546100,1.000000,1.000000,1.000000,1.000000,0.505100,0.504800,0.505200,0.505300,0.505300,0.503700,0.503800,0.505700,0.505800,0.505800,0.505700,0.503900,0.503300,0.503300,0.503200,0.503200,0.502500,0.502400,0.503200,0.503200,0.503200,0.503100,0.501400,0.500300,0.500500,0.501800,0.501900,0.501900,0.501900,0.501900,0.499800,0.499700,0.499300,0.497200,0.497200,0.498300,0.498300,0.501000,0.500900,0.500700,0.500600,0.500600,0.500400,0.498600,0.498400,0.498400,0.498700,0.499200,0.498200,0.498200,0.498200,0.498200,0.497100,0.497100,1.000000,1.000000,1.000000,0.496100,1.000000,0.496400,0.497000,0.495900,0.495800,0.495600,0.495200,0.495100,0.494900,0.495000,0.495000,0.495000,0.495000,0.495000,0.495000,0.495000,1.000000,0.494400,0.494300,0.492200,0.492200,0.492200,0.492200,0.492300,0.490500,0.490500,0.490400,1.000000,1.000000,1.000000,0.493300,1.000000,0.492500,1.000000,1.000000,1.000000,1.000000,1.000000,0.492100,1.000000,1.000000,1.000000,0.490200,0.488000,1.000000,0.453900,0.453400,0.453000,1.000000,1.000000,1.000000,1.000000,1.000000,1.000000,1.000000,1.000000,1.000000,1.000000,1.000000,1.000000,0.524500,0.525900,1.000000,1.000000,1.000000,1.000000,1.000000,0.525400,0.525500,0.526500,1.000000,1.000000,1.000000,0.519800,0.519800,0.519800,1.000000,0.524900,1.000000,1.000000,1.000000,0.484200,0.484200,0.484200,1.000000,1.000000,1.000000,1.000000,1.000000
1.000000,1.000000,1.000000,1.000000,1.000000,1.000000,1.000000,1.000000,1.000000,1.000000,0.565100,0.565100,0.565100,0.559400,1.000000,1.000000,1.000000,1.000000,1.000000,1.000000,1.000000,1.000000,1.000000,1.000000,0.564600,0.561700,1.000000,1.000000,1.000000,1.000000,1.000000,1.000000,1.000000,1.000000,1.000000,1.000000,1.000000,0.557900,0.557900,0.558000,1.000000,1.000000,1.000000,0.559700,0.559100,0.556700,0.554500,1.000000,1.000000,1.000000,1.000000,0.554700,0.553200,0.553400,1.000000,1.000000,0.553900,0.553900,0.553300,0.553100,0.553100,0.551600,0.551600,1.000000,0.549600,0.549600,0.552400,0.552500,1.000000,1.000000,1.000000,1.000000,1.000000,1.000000,1.000000,1.000000,1.000000,1.000000,0.553400,0.551300,0.551400,0.551400,0.551900,0.551900,1.000000,0.550500,0.548700,0.547600,0.545800,0.545800,0.546900,0.548000,0.549200,0.549100,0.549000,0.548800,0.548800,1.000000,0.547600,0.548000,0.550100,0.550400,0.550400,0.548000,0.546200,1.000000,1.000000,1.000000,1.000000,0.503100,0.503200,0.503300,0.505200,0.503700,0.503700,0.503700,0.503800,0.504300,0.505700,0.505700,0.503900,0.503600,0.503200,0.503100,0.502300,0.502000,0.501800,0.501600,0.503200,0.503200,0.500800,0.500000,0.499300,0.499300,0.500200,0.501400,0.501600,0.501500,0.499900,0.499700,0.499300,0.497200,0.497200,0.497200,0.497200,0.498300,0.498300,0.498400,0.498500,0.500500,0.500500,0.498600,0.497800,0.496400,0.496600,0.496600,0.496700,0.498300,0.498300,0.498200,0.497100,0.497100,0.495700,0.495500,0.495300,0.495200,0.495100,0.495000,1.000000,1.000000,0.496000,1.000000,0.495700,0.495300,0.495200,0.495100,0.495100,1.000000,0.495000,0.495000,0.495100,0.495000,0.495000,1.000000,1.000000,0.494300,0.494200,0.494200,0.494200,0.493200,0.492800,0.490400,0.490400,1.000000,1.000000,1.000000,1.000000,1.000000,0.493200,0.493000,1.000000,1.000000,1.000000,1.000000,1.000000,0.492100,1.000000,1.000000,1.000000,0.488000,0.488000,0.488000,1.000000,1.000000,0.454000,1.000000,1.000000,1.000000,1.000000,1.000000,1.000000,1.000000,1.000000,1.000000,1.000000,1.000000,0.524500,0.524500,0.526000,0.528200,0.528300,0.528300,0.526900,0.526800,1.000000,0.526800,0.526700,0.526600,1.000000,1.000000,1.000000,0.519800,0.521200,0.523600,0.524900,1.000000,1.000000,1.000000,0.484200,1.000000,0.482800,1.000000,1.000000,0.518400,1.000000,1.000000
1.000000,1.000000,0.565400,1.000000,1.000000,1.000000,1.000000,1.000000,1.000000,1.000000,0.565100,0.565100,0.565100,1.000000,1.000000,1.000000,1.000000,1.000000,1.000000,1.000000,1.000000,1.000000,1.000000,1.000000,0.564500,0.561500,1.000000,1.000000,1.000000,1.000000,1.000000,1.000000,1.000000,1.000000,0.557900,1.000000,0.559200,0.557900,0.557900,1.000000,0.558300,1.000000,0.559800,0.559600,0.559000,1.000000,1.000000,1.000000,1.000000,1.000000,1.000000,0.554700,0.553400,0.553400,1.000000,1.000000,0.553900,0.553800,0.553400,0.553200,0.553100,0.551600,0.551600,1.000000,0.549600,0.549600,1.000000,1.000000,1.000000,1.000000,1.000000,1.000000,1.000000,1.000000,1.000000,1.000000,1.000000,1.000000,0.551100,0.551100,0.551200,0.551300,1.000000,0.552000,1.000000,0.548700,0.548700,0.547600,0.545800,1.000000,0.547000,0.548000,0.549200,0.549200,0.549100,0.549000,0.548900,0.548900,0.548200,0.548500,0.550100,0.550200,0.548300,0.546300,0.546200,1.000000,1.000000,1.000000,0.503000,0.502200,0.502200,0.502400,0.503600,0.503600,0.502500,0.502500,0.503700,0.503800,0.503900,0.504000,0.503900,0.503800,0.503100,0.502300,0.502200,0.501900,0.501700,0.501400,0.501400,0.501300,0.500400,0.499300,0.499300,0.499300,0.500200,0.500400,0.501400,0.501400,0.500000,0.499800,0.499300,0.497200,0.497200,0.497200,0.497300,0.498300,0.498300,0.497900,0.497500,0.500300,0.500400,0.498500,0.496400,0.495000,0.495000,0.495000,0.496800,0.498300,0.498300,0.497100,0.497100,0.497100,0.495800,0.495400,1.000000,0.495300,1.000000,0.495000,1.000000,1.000000,0.496000,0.496000,1.000000,0.495800,0.495300,1.000000,1.000000,1.000000,0.495100,0.495000,0.495100,1.000000,1.000000,1.000000,1.000000,0.494200,0.494200,0.494200,0.494200,0.493200,0.493000,0.490400,0.490400,0.490400,1.000000,1.000000,1.000000,1.000000,1.000000,1.000000,1.000000,1.000000,1.000000,1.000000,1.000000,1.000000,1.000000,1.000000,1.000000,1.000000,0.488000,0.488000,1.000000,1.000000,1.000000,1.000000,1.000000,1.000000,1.000000,1.000000,1.000000,1.000000,1.000000,0.526700,0.526600,0.524900,0.524500,0.526100,0.526200,0.528300,0.528300,0.528300,0.527200,0.526800,0.526800,0.526800,0.526800,0.525600,0.525600,1.000000,1.000000,1.000000,0.523700,0.523700,0.524800,1.000000,1.000000,0.482700,0.482700,0.482600,0.482100,1.000000,1.000000,0.519800,1.000000,1.000000
1.000000,1.000000,0.565400,0.565400,1.000000,1.000000,1.000000,1.000000,1.000000,1.000000,1.000000,0.565100,1.000000,1.000000,1.000000,1.000000,1.000000,1.000000,1.000000,1.000000,1.000000,1.000000,1.000000,1.000000,0.564500,0.560500,1.000000,1.000000,1.000000,1.000000,1.000000,0.556600,0.556600,0.556600,1.000000,0.559100,0.558100,0.557900,0.557900,0.558000,0.558200,0.558300,0.558400,0.558400,0.558000,0.558000,0.557900,0.554600,1.000000,1.000000,1.000000,1.000000,1.000000,1.000000,1.000000,1.000000,0.553800,0.553800,1.000000,1.000000,0.553400,0.551600,0.551600,1.000000,1.000000,1.000000,1.000000,1.000000,1.000000,0.551100,1.000000,1.000000,1.000000,1.000000,1.000000,1.000000,1.000000,1.000000,1.000000,0.551000,0.551100,0.551100,0.551200,0.548700,1.000000,1.000000,0.548700,0.548600,0.548600,1.000000,0.547000,0.548100,0.549300,0.549300,0.549300,0.549100,0.549000,0.549000,0.548900,0.549300,0.549600,0.546700,0.546500,0.546400,0.546300,1.000000,1.000000,0.502700,0.502000,0.502000,0.502200,0.502300,0.502500,0.502500,0.502500,0.502500,0.502400,0.501300,0.501300,0.502100,0.503800,0.503800,0.502700,0.502200,0.502100,0.501800,0.501600,0.500600,0.501200,0.501000,0.500200,0.499200,0.499200,0.499200,0.500200,0.500300,0.500400,0.501400,0.501200,0.500700,0.500500,0.499200,0.498600,0.497300,0.498300,0.498300,0.498300,0.496800,0.496800,0.500300,0.500300,0.498600,0.494500,0.494700,0.494800,0.495000,0.497000,0.498400,0.498400,0.497100,0.497000,0.497000,0.496600,0.495400,0.495300,0.495200,1.000000,0.495000,1.000000,1.000000,0.497100,0.497100,0.497100,0.496000,1.000000,1.000000,1.000000,1.000000,1.000000,1.000000,1.000000,1.000000,1.000000,1.000000,1.000000,0.494200,1.000000,1.000000,1.000000,0.492900,0.492800,0.490300,0.490300,0.489500,1.000000,1.000000,1.000000,1.000000,1.000000,1.000000,1.000000,1.000000,1.000000,1.000000,1.000000,1.000000,1.000000,1.000000,1.000000,1.000000,1.000000,1.000000,1.000000,1.000000,1.000000,1.000000,1.000000,1.000000,1.000000,1.000000,1.000000,0.526900,0.526900,0.526900,0.527000,0.526600,0.526400,0.526300,0.528300,0.528400,0.528400,0.527100,0.526700,0.526500,0.526800,0.526800,0.526900,0.525600,0.525600,1.000000,1.000000,0.523700,0.523700,0.523700,0.524700,1.000000,1.000000,1.000000,0.480900,0.480900,0.480800,1.000000,1.000000,1.000000,0.521400,1.000000
1.000000,1.000000,0.564100,1.000000,1.000000,1.000000,1.000000,1.000000,1.000000,1.000000,1.000000,1.000000,1.000000,1.000000,0.561300,1.000000,1.000000,1.000000,1.000000,1.000000,1.000000,1.000000,1.000000,1.000000,1.000000,1.000000,1.000000,1.000000,1.000000,1.000000,0.559100,0.559100,0.558000,0.558000,1.000000,1.000000,1.000000,0.556200,0.556200,1.000000,0.558200,0.558300,0.556700,0.556700,0.556800,0.558000,0.557900,0.555500,1.000000,1.000000,1.000000,1.000000,1.000000,0.553700,0.553800,1.000000,0.550500,0.550600,0.552100,0.553600,0.553500,0.551600,1.000000,1.000000,1.000000,1.000000,1.000000,0.552000,0.551000,1.000000,1.000000,1.000000,0.547400,1.000000,1.000000,1.000000,1.000000,1.000000,0.551000,0.551000,0.551000,0.551000,0.550400,0.548700,0.548700,0.548700,1.000000,1.000000,1.000000,1.000000,1.000000,0.549300,0.549800,0.549800,0.549700,0.549300,0.549100,0.549000,0.549000,0.549100,0.549300,0.546600,0.546600,0.546600,0.546500,1.000000,1.000000,0.501900,0.501900,0.502000,0.502100,0.502400,0.502500,0.502500,0.502500,0.502400,0.501100,0.501100,0.501100,0.501500,0.502200,0.503800,0.502500,0.502200,0.502100,0.500500,0.500500,0.500600,0.500600,0.500600,0.500300,0.500200,0.499200,0.500200,0.500200,0.500200,0.500300,0.501300,0.501400,0.500900,0.500600,0.500500,1.000000,1.000000,0.498300,0.498300,0.497400,0.494300,0.496800,1.000000,1.000000,1.000000,1.000000,1.000000,1.000000,1.000000,0.497100,0.497100,0.498500,0.497000,0.497000,0.496900,0.495900,0.495600,0.495300,0.495300,0.495300,1.000000,1.000000,1.000000,1.000000,1.000000,1.000000,1.000000,1.000000,1.000000,1.000000,1.000000,1.000000,1.000000,1.000000,1.000000,1.000000,1.000000,1.000000,0.492400,0.491600,0.492000,0.492600,0.492500,0.491800,0.489600,0.489500,1.000000,1.000000,1.000000,1.000000,1.000000,1.000000,1.000000,1.000000,1.000000,1.000000,1.000000,1.000000,1.000000,1.000000,1.000000,1.000000,1.000000,1.000000,1.000000,1.000000,1.000000,1.000000,1.000000,1.000000,1.000000,1.000000,1.000000,1.000000,0.527000,1.000000,0.527200,0.527800,0.530400,0.528300,0.528300,0.528400,0.528400,0.528400,0.526400,0.526200,0.526100,0.526600,0.526900,0.526900,0.527000,0.525700,1.000000,1.000000,1.000000,0.523800,0.523900,0.524100,0.524400,1.000000,1.000000,0.480900,0.480900,1.000000,0.480900,1.000000,0.521900,0.522000,1.000000
1.000000,1.000000,1.000000,1.000000,1.000000,1.000000,1.000000,1.000000,1.000000,0.558600,0.558600,0.559700,1.000000,1.000000,1.000000,0.561300,0.561200,1.000000,1.000000,1.000000,1.000000,1.000000,1.000000,1.000000,1.000000,1.000000,1.000000,1.000000,1.000000,1.000000,0.560700,0.559200,0.558300,0.558000,0.556600,1.000000,1.000000,1.000000,0.555600,0.556700,0.556600,0.556600,0.556600,0.556700,0.556800,0.557900,0.558000,0.558000,1.000000,1.000000,1.000000,1.000000,1.000000,1.000000,1.000000,0.553800,0.548800,0.550600,0.550600,0.552100,0.553500,0.551000,1.000000,1.000000,1.000000,1.000000,1.000000,0.551500,1.000000,1.000000,1.000000,0.547500,0.548600,1.000000,1.000000,1.000000,1.000000,1.000000,0.550900,0.550800,0.550800,0.550600,0.550100,0.548600,0.548700,0.550000,0.550000,1.000000,1.000000,1.000000,1.000000,1.000000,0.549900,0.549800,0.549800,0.549000,0.549000,0.548900,0.549000,0.549000,0.549100,0.546700,0.546700,0.546600,0.546500,0.546600,1.000000,0.501900,0.501900,0.501900,0.502200,0.502500,0.502600,1.000000,1.000000,1.000000,1.000000,0.499400,0.499400,0.501200,0.502200,1.000000,1.000000,1.000000,0.502400,0.502200,1.000000,1.000000,1.000000,1.000000,0.500300,0.500200,0.500200,0.500200,0.500200,0.500200,0.498000,1.000000,1.000000,1.000000,1.000000,1.000000,1.000000,1.000000,1.000000,1.000000,1.000000,1.000000,1.000000,1.000000,1.000000,1.000000,1.000000,1.000000,1.000000,1.000000,0.497100,0.497000,0.497000,0.496100,0.496000,0.496000,0.494500,0.494400,0.494300,0.494200,0.495800,1.000000,1.000000,0.536400,1.000000,1.000000,1.000000,1.000000,1.000000,0.533600,1.000000,1.000000,1.000000,1.000000,1.000000,1.000000,1.000000,1.000000,1.000000,0.491600,0.491600,0.491600,0.491600,0.491700,0.491200,0.489500,0.489300,1.000000,1.000000,1.000000,1.000000,1.000000,1.000000,1.000000,1.000000,1.000000,1.000000,1.000000,1.000000,1.000000,1.000000,1.000000,1.000000,1.000000,1.000000,1.000000,1.000000,1.000000,1.000000,1.000000,1.000000,1.000000,1.000000,1.000000,1.000000,1.000000,1.000000,0.527100,0.530400,0.530400,0.530300,0.528300,0.526900,0.526700,0.526600,0.526300,0.526200,0.525400,0.525400,0.525300,0.526900,0.526900,0.525800,1.000000,1.000000,1.000000,0.523900,0.524000,0.524000,1.000000,1.000000,1.000000,1.000000,0.481000,0.481200,0.482700,1.000000,0.523200,0.524900,1.000000
1.000000,1.000000,1.000000,1.000000,0.564100,0.562900,0.562900,0.560600,1.000000,0.559700,0.559700,1.000000,1.000000,1.000000,1.000000,0.561200,0.559600,0.559600,1.000000,1.000000,1.000000,1.000000,1.000000,1.000000,1.000000,1.000000,1.000000,1.000000,1.000000,1.000000,0.560700,0.560700,0.558300,0.558300,1.000000,1.000000,1.000000,0.555500,0.555500,0.555600,0.556600,0.556600,0.556600,1.000000,1.000000,0.558300,0.558500,0.558200,1.000000,1.000000,1.000000,1.000000,1.000000,1.000000,1.000000,1.000000,0.548600,0.550400,0.550600,0.552100,0.552100,1.000000,1.000000,1.000000,1.000000,1.000000,1.000000,0.550900,0.551000,0.550900,1.000000,0.547400,1.000000,1.000000,1.000000,1.000000,1.000000,1.000000,0.550800,0.550800,0.550700,0.550700,0.550300,0.550000,0.550000,0.550000,0.550000,1.000000,1.000000,1.000000,1.000000,0.549900,0.549900,0.549900,0.548700,0.546900,0.547100,0.548900,0.548900,0.549000,0.548200,0.546800,0.546800,0.546700,0.547700,0.547600,1.000000,0.501900,0.501900,0.502000,0.503600,0.503800,1.000000,1.000000,1.000000,1.000000,1.000000,0.497400,0.497400,0.497400,1.000000,1.000000,1.000000,1.000000,1.000000,1.000000,1.000000,1.000000,1.000000,0.500200,0.500200,0.500200,0.500200,0.500200,0.499800,0.497900,0.497900,1.000000,1.000000,1.000000,1.000000,1.000000,1.000000,1.000000,1.000000,1.000000,1.000000,1.000000,1.000000,1.000000,1.000000,1.000000,1.000000,1.000000,1.000000,1.000000,1.000000,0.497000,0.496900,0.496000,0.496000,0.496000,0.494400,0.494400,0.494200,0.494200,1.000000,1.000000,0.536200,0.536400,0.536400,0.536400,0.537700,0.537300,0.534100,0.532400,0.532400,0.532500,0.532500,1.000000,1.000000,1.000000,1.000000,1.000000,1.000000,0.491500,0.491500,0.491500,0.491500,0.491300,0.491000,0.489300,0.489300,1.000000,1.000000,1.000000,1.000000,1.000000,1.000000,1.000000,1.000000,1.000000,1.000000,1.000000,1.000000,1.000000,1.000000,1.000000,1.000000,1.000000,1.000000,1.000000,1.000000,1.000000,1.000000,1.000000,1.000000,1.000000,1.000000,1.000000,1.000000,1.000000,1.000000,1.000000,1.000000,0.530300,0.530300,0.528600,0.527000,0.526700,0.526600,0.526500,0.526400,0.525300,1.000000,1.000000,0.526900,0.526900,0.526100,1.000000,1.000000,1.000000,0.524000,0.524000,0.524000,1.000000,1.000000,1.000000,1.000000,0.483400,0.483400,0.483500,0.483500,1.000000,0.525600,1.000000
1.000000,1.000000,1.000000,0.564000,0.564100,0.564200,0.563900,0.560700,0.560800,1.000000,0.561300,0.561400,0.560000,1.000000,0.559900,0.559900,0.559500,0.559400,1.000000,1.000000,1.000000,1.000000,1.000000,1.000000,1.000000,1.000000,1.000000,1.000000,1.000000,1.000000,1.000000,1.000000,1.000000,1.000000,1.000000,1.000000,0.555500,0.555400,0.555400,1.000000,1.000000,1.000000,1.000000,1.000000,1.000000,0.559400,0.559700,0.558800,1.000000,1.000000,1.000000,1.000000,1.000000,1.000000,1.000000,1.000000,0.550500,1.000000,1.000000,0.552100,1.000000,1.000000,1.000000,1.000000,1.000000,1.000000,1.000000,0.550900,0.551000,0.551000,0.551000,1.000000,1.000000,1.000000,0.547700,0.547700,1.000000,1.000000,0.550200,0.550600,0.550600,0.550500,0.550400,0.550000,0.549000,0.549000,0.549000,1.000000,0.549100,1.000000,0.548900,0.548800,0.548400,0.546700,0.546700,0.545900,0.545900,0.545900,0.547100,0.548400,0.547000,0.547000,0.547000,0.547700,0.547600,0.547600,1.000000,0.502000,0.502000,0.503300,0.503700,0.504600,1.000000,1.000000,1.000000,1.000000,1.000000,1.000000,1.000000,1.000000,1.000000,1.000000,1.000000,1.000000,1.000000,1.000000,1.000000,1.000000,1.000000,1.000000,0.500100,0.500200,0.500200,0.499600,0.498000,0.497900,1.000000,1.000000,1.000000,1.000000,1.000000,1.000000,1.000000,0.537000,0.538300,1.000000,1.000000,1.000000,1.000000,1.000000,1.000000,1.000000,1.000000,1.000000,1.000000,1.000000,1.000000,0.496700,0.496400,0.494400,0.494400,0.494400,0.494300,0.494300,0.494100,0.494100,1.000000,1.000000,1.000000,0.536400,0.536500,0.537600,0.537700,0.534200,0.533300,0.532300,1.000000,0.532500,0.532600,1.000000,0.538100,1.000000,1.000000,1.000000,1.000000,0.491500,0.491500,0.491500,0.491400,0.491400,0.491000,0.491000,0.491000,0.494700,1.000000,1.000000,1.000000,1.000000,1.000000,1.000000,1.000000,1.000000,1.000000,0.506800,1.000000,1.000000,1.000000,1.000000,1.000000,1.000000,1.000000,1.000000,1.000000,1.000000,1.000000,1.000000,1.000000,1.000000,1.000000,1.000000,1.000000,1.000000,1.000000,1.000000,0.530100,0.530200,0.528700,0.528700,0.527200,0.526800,0.526700,0.527000,0.528100,0.525200,0.525200,0.525200,0.525200,0.526900,0.527800,1.000000,1.000000,1.000000,1.000000,1.000000,1.000000,1.000000,1.000000,1.000000,1.000000,0.483400,0.483400,0.483500,0.483500,1.000000,1.000000,1.000000
1.000000,1.000000,1.000000,1.000000,0.564200,1.000000,0.564100,0.560900,0.560800,1.000000,0.561400,0.561400,0.560000,1.000000,0.560000,1.000000,0.559400,0.559400,0.559400,1.000000,1.000000,1.000000,1.000000,1.000000,1.000000,1.000000,1.000000,1.000000,1.000000,1.000000,1.000000,1.000000,1.000000,1.000000,1.000000,0.555500,1.000000,1.000000,1.000000,1.000000,1.000000,1.000000,1.000000,1.000000,1.000000,0.559500,0.559600,0.559800,1.000000,1.000000,1.000000,1.000000,1.000000,1.000000,1.000000,1.000000,1.000000,0.554300,1.000000,1.000000,1.000000,1.000000,1.000000,1.000000,1.000000,1.000000,1.000000,0.551000,0.551400,0.551200,0.551100,0.551200,0.551300,0.551300,0.547700,0.547700,0.547800,0.547900,0.550000,0.550200,0.550500,0.550500,0.550400,0.548900,0.548900,0.548900,0.549000,0.549000,0.549000,0.549000,0.548400,0.548000,0.546700,0.546700,0.546600,0.545900,0.546000,0.545900,0.547000,0.547000,0.547100,0.547100,0.547700,0.547700,0.547600,1.000000,1.000000,0.502000,0.503300,0.503300,0.503400,0.504600,1.000000,1.000000,1.000000,1.000000,1.000000,1.000000,1.000000,1.000000,1.000000,1.000000,1.000000,1.000000,1.000000,1.000000,1.000000,1.000000,1.000000,1.000000,0.498300,0.498200,0.498100,0.498000,0.498000,0.497900,0.497900,1.000000,1.000000,1.000000,1.000000,0.540000,0.538600,0.538400,1.000000,1.000000,1.000000,1.000000,1.000000,1.000000,1.000000,1.000000,1.000000,1.000000,1.000000,1.000000,0.497000,0.496400,0.495300,0.494400,0.494400,0.494400,0.494300,0.494200,0.494100,0.494100,1.000000,1.000000,1.000000,1.000000,0.536800,1.000000,0.537400,0.534300,1.000000,0.532400,1.000000,0.532500,0.532600,1.000000,1.000000,1.000000,1.000000,1.000000,1.000000,0.491500,0.491500,0.491500,0.491400,0.491400,0.491100,0.491000,0.494700,1.000000,0.505900,1.000000,0.505900,0.507500,1.000000,1.000000,1.000000,1.000000,0.506800,0.506800,0.506800,1.000000,1.000000,1.000000,1.000000,1.000000,1.000000,1.000000,1.000000,1.000000,1.000000,1.000000,1.000000,1.000000,1.000000,1.000000,1.000000,1.000000,1.000000,1.000000,0.527300,0.527300,0.528700,0.527300,0.527200,0.527200,0.527100,0.528400,0.528800,0.526700,0.525100,1.000000,0.526800,0.527900,0.528200,0.527800,1.000000,1.000000,1.000000,1.000000,1.000000,1.000000,1.000000,1.000000,1.000000,0.479900,0.483300,0.483200,1.000000,1.000000,1.000000,1.000000
1.000000,1.000000,1.000000,1.000000,1.000000,1.000000,1.000000,0.560900,1.000000,0.563600,0.563500,1.000000,1.000000,1.000000,1.000000,1.000000,0.560800,0.560800,1.000000,1.000000,1.000000,0.559800,0.559800,0.559700,1.000000,1.000000,1.000000,1.000000,1.000000,1.000000,1.000000,1.000000,1.000000,1.000000,1.000000,1.000000,0.555500,0.554000,1.000000,1.000000,0.555400,1.000000,0.555400,1.000000,1.000000,1.000000,1.000000,1.000000,1.000000,1.000000,1.000000,1.000000,1.000000,1.000000,1.000000,0.554600,0.554600,0.554600,0.555700,1.000000,0.554600,1.000000,1.000000,1.000000,1.000000,1.000000,1.000000,1.000000,0.553800,0.553600,0.552100,1.000000,0.551400,0.551400,0.551400,0.549200,0.548400,0.547900,0.550100,0.550200,0.550300,0.550300,0.550200,0.548800,0.548800,0.548800,0.548900,0.548900,0.548900,0.548700,0.548000,0.548000,0.546700,0.546700,0.546600,0.546000,0.546000,0.546000,0.546100,0.547000,0.547000,0.547700,0.547700,0.547600,0.547500,0.547400,0.503300,0.503300,0.503300,0.503300,0.503200,0.503200,1.000000,1.000000,0.544900,0.544800,0.544700,1.000000,1.000000,0.542800,1.000000,1.000000,1.000000,1.000000,1.000000,1.000000,1.000000,1.000000,1.000000,0.498500,0.498000,0.498000,0.498000,0.498000,0.498000,0.498000,0.499800,1.000000,1.000000,1.000000,1.000000,0.540000,0.540000,0.538400,1.000000,1.000000,1.000000,1.000000,1.000000,1.000000,1.000000,1.000000,1.000000,1.000000,1.000000,1.000000,1.000000,0.495300,0.495300,0.494400,0.494400,0.494400,0.494300,0.494200,0.494200,0.494100,1.000000,1.000000,1.000000,1.000000,1.000000,1.000000,0.537200,1.000000,1.000000,1.000000,0.532500,0.532600,0.532700,0.532700,1.000000,1.000000,1.000000,1.000000,1.000000,0.491500,0.491500,0.491500,0.491400,0.491400,0.491100,0.491000,0.494700,0.502500,0.505300,0.505900,0.505800,1.000000,0.507000,1.000000,1.000000,1.000000,0.506800,0.506800,1.000000,1.000000,1.000000,1.000000,1.000000,1.000000,1.000000,1.000000,1.000000,1.000000,1.000000,1.000000,1.000000,1.000000,1.000000,1.000000,1.000000,1.000000,1.000000,1.000000,1.000000,0.527300,0.527300,0.527300,0.527300,0.527300,0.528400,0.528700,0.528600,0.528400,1.000000,1.000000,0.525200,0.525400,0.527800,0.525400,0.522900,1.000000,1.000000,1.000000,1.000000,1.000000,1.000000,0.483000,0.479900,0.480000,0.480100,0.480100,1.000000,1.000000,1.000000,1.000000
1.000000,1.000000,1.000000,1.000000,1.000000,1.000000,1.000000,1.000000,1.000000,0.565400,0.563600,1.000000,1.000000,1.000000,1.000000,0.561000,0.561100,0.561100,0.561100,0.561100,0.559700,0.559700,0.559600,0.559700,1.000000,1.000000,1.000000,1.000000,1.000000,0.558200,0.557000,1.000000,1.000000,1.000000,1.000000,1.000000,1.000000,1.000000,1.000000,1.000000,0.555400,1.000000,0.555400,0.555400,1.000000,1.000000,1.000000,1.000000,1.000000,1.000000,1.000000,1.000000,1.000000,1.000000,1.000000,1.000000,0.555700,0.555800,0.555800,0.555800,0.554700,0.552600,1.000000,1.000000,1.000000,1.000000,1.000000,0.552200,0.553500,0.552200,0.552100,1.000000,0.551400,0.551400,0.551400,0.551400,0.551500,0.549700,0.550100,0.550100,0.550200,0.550100,0.549100,0.548800,0.548700,0.548700,0.548700,0.548800,0.548600,0.547900,0.547800,0.546700,0.546700,0.546700,0.546600,0.546500,0.546400,0.546800,0.546900,0.546900,0.546800,0.546800,0.547600,0.547400,0.547400,1.000000,1.000000,0.503400,0.503300,0.503300,0.503200,0.503100,1.000000,1.000000,0.546500,0.544800,0.544800,0.542800,0.542800,1.000000,1.000000,1.000000,1.000000,1.000000,1.000000,1.000000,1.000000,1.000000,1.000000,1.000000,0.498000,0.498000,0.498000,0.498000,0.499600,0.499600,0.499700,0.499800,1.000000,1.000000,1.000000,0.538800,0.538600,0.538300,0.538200,1.000000,1.000000,1.000000,1.000000,1.000000,1.000000,1.000000,1.000000,1.000000,1.000000,1.000000,0.495400,0.495300,0.495100,0.494400,0.494400,0.494400,0.494300,0.494200,0.494100,0.494100,0.495600,1.000000,1.000000,1.000000,1.000000,1.000000,1.000000,1.000000,1.000000,1.000000,0.535000,0.533900,0.532700,0.532800,1.000000,1.000000,1.000000,1.000000,1.000000,0.491600,0.491600,0.492700,0.491900,0.491500,0.491200,0.491200,0.493300,0.502500,0.505300,0.505300,0.505300,0.505600,0.505800,0.505600,1.000000,1.000000,0.505400,0.506000,0.503200,0.502000,1.000000,1.000000,1.000000,1.000000,1.000000,1.000000,1.000000,1.000000,1.000000,1.000000,1.000000,1.000000,1.000000,1.000000,1.000000,1.000000,1.000000,1.000000,0.527200,0.527200,0.527300,0.527300,1.000000,0.527300,0.527300,0.528400,1.000000,1.000000,1.000000,1.000000,1.000000,1.000000,1.000000,1.000000,1.000000,1.000000,1.000000,1.000000,1.000000,1.000000,1.000000,0.482900,1.000000,0.480200,0.480200,0.480100,0.480100,1.000000,1.000000,1.000000
0.563300,0.563300,1.000000,1.000000,1.000000,1.000000,1.000000,1.000000,1.000000,1.000000,1.000000,1.000000,1.000000,1.000000,1.000000,1.000000,1.000000,0.561100,0.561100,0.561100,1.000000,0.559600,0.559500,0.559400,1.000000,1.000000,1.000000,1.000000,0.558100,0.558100,0.557000,0.557000,1.000000,1.000000,1.000000,1.000000,1.000000,0.553900,0.553900,1.000000,0.555400,1.000000,0.555400,0.555400,1.000000,1.000000,1.000000,1.000000,1.000000,1.000000,1.000000,1.000000,1.000000,1.000000,1.000000,1.000000,0.555900,0.555800,0.555800,0.555900,0.554700,0.551500,0.551500,0.551500,1.000000,1.000000,1.000000,0.552200,0.552200,0.552100,0.552100,1.000000,0.552000,0.552100,0.552200,1.000000,1.000000,0.551300,0.551200,0.550100,0.550100,0.550000,0.549100,0.548900,1.000000,1.000000,0.548700,0.548700,0.547700,0.547700,0.546600,0.546600,0.546700,0.546700,0.546700,0.546600,0.546700,0.548300,0.546900,0.546800,0.546700,0.546600,0.546600,0.546700,0.547000,0.547200,1.000000,0.503400,0.503400,0.503300,0.503200,1.000000,1.000000,0.548100,1.000000,1.000000,0.542800,0.539200,1.000000,1.000000,1.000000,1.000000,1.000000,1.000000,1.000000,1.000000,1.000000,1.000000,1.000000,1.000000,0.497900,0.497900,0.497900,0.499500,0.499600,0.499600,0.499700,1.000000,1.000000,0.537300,1.000000,0.537300,1.000000,0.537700,1.000000,1.000000,1.000000,1.000000,1.000000,1.000000,1.000000,1.000000,1.000000,1.000000,1.000000,1.000000,1.000000,0.497200,0.496900,0.494500,0.494400,0.494400,0.495400,0.495500,0.495500,1.000000,1.000000,1.000000,1.000000,1.000000,1.000000,1.000000,1.000000,1.000000,0.537600,0.537600,0.537600,0.535000,0.532800,1.000000,1.000000,1.000000,1.000000,0.495100,0.492800,0.492800,0.492700,0.492700,0.492700,0.491700,0.491200,0.491200,0.491200,0.493100,0.503300,0.505200,0.505200,0.505200,0.505200,0.505000,1.000000,1.000000,1.000000,0.505500,0.505300,1.000000,1.000000,1.000000,1.000000,1.000000,1.000000,1.000000,1.000000,1.000000,1.000000,1.000000,1.000000,1.000000,1.000000,1.000000,1.000000,1.000000,1.000000,1.000000,1.000000,0.526000,0.527300,0.527300,0.527400,1.000000,1.000000,1.000000,1.000000,1.000000,1.000000,1.000000,1.000000,1.000000,1.000000,1.000000,1.000000,1.000000,1.000000,1.000000,1.000000,1.000000,1.000000,1.000000,0.481400,0.481200,0.480100,0.480100,0.480100,1.000000,1.000000,1.000000
0.551800,0.551800,1.000000,1.000000,1.000000,1.000000,1.000000,1.000000,1.000000,1.000000,1.000000,1.000000,1.000000,1.000000,1.000000,1.000000,1.000000,0.561100,0.560600,0.559700,0.559700,0.559000,0.559000,0.559200,1.000000,1.000000,1.000000,1.000000,0.558100,0.557900,1.000000,1.000000,1.000000,1.000000,1.000000,1.000000,1.000000,0.553900,0.553900,0.553900,1.000000,1.000000,1.000000,1.000000,1.000000,1.000000,1.000000,1.000000,1.000000,1.000000,1.000000,1.000000,1.000000,0.554400,0.554400,1.000000,0.556000,0.556000,0.556000,0.555900,0.553400,0.551400,0.551500,0.551600,0.551700,1.000000,1.000000,1.000000,0.552200,0.552100,0.552100,0.552100,0.552100,0.552200,0.552200,0.552100,0.551600,0.551200,0.551100,0.550100,0.549500,0.549300,0.549100,0.547800,0.547800,0.547900,0.547900,0.547800,0.547700,0.546500,0.546600,0.546600,0.546600,0.546600,0.546700,0.546800,0.548400,0.548400,0.546800,0.546800,0.546600,0.546500,0.546500,0.546600,0.546800,1.000000,1.000000,1.000000,0.503400,0.503300,1.000000,1.000000,1.000000,1.000000,1.000000,1.000000,1.000000,1.000000,1.000000,1.000000,1.000000,1.000000,1.000000,1.000000,1.000000,1.000000,1.000000,1.000000,1.000000,1.000000,0.497900,0.497900,0.499500,0.499500,0.497300,0.497100,0.497100,1.000000,1.000000,0.535900,0.535900,0.536000,1.000000,1.000000,1.000000,1.000000,1.000000,1.000000,1.000000,1.000000,1.000000,1.000000,1.000000,1.000000,1.000000,1.000000,1.000000,0.497500,0.497600,0.496700,0.496800,0.496800,0.497100,0.497300,0.497100,0.497100,1.000000,1.000000,1.000000,0.538700,1.000000,1.000000,1.000000,1.000000,1.000000,0.537500,0.536200,0.535000,0.535000,0.532900,1.000000,1.000000,1.000000,1.000000,0.495200,0.492800,0.492800,0.492800,0.492700,0.492200,0.491200,0.491200,0.491200,0.493100,0.503300,0.505300,0.505800,0.505100,0.505000,0.503800,0.503800,0.503800,1.000000,1.000000,0.505600,1.000000,1.000000,1.000000,1.000000,1.000000,1.000000,1.000000,1.000000,1.000000,1.000000,1.000000,1.000000,1.000000,1.000000,1.000000,1.000000,1.000000,1.000000,1.000000,0.525800,0.525800,0.527400,0.527600,1.000000,1.000000,1.000000,1.000000,1.000000,1.000000,1.000000,1.000000,1.000000,1.000000,1.000000,1.000000,1.000000,1.000000,1.000000,1.000000,1.000000,1.000000,1.000000,1.000000,0.482100,0.482100,0.482200,0.482200,1.000000,1.000000,1.000000,1.000000
0.551800,0.551800,1.000000,1.000000,1.000000,1.000000,1.000000,1.000000,1.000000,1.000000,1.000000,1.000000,0.559800,1.000000,1.000000,1.000000,1.000000,0.557700,0.557600,0.557400,0.557100,0.557200,0.559000,0.559000,0.559100,1.000000,1.000000,1.000000,1.000000,1.000000,1.000000,1.000000,1.000000,1.000000,1.000000,1.000000,1.000000,1.000000,0.553900,1.000000,1.000000,1.000000,1.000000,1.000000,0.555900,1.000000,1.000000,1.000000,1.000000,1.000000,1.000000,1.000000,0.554300,0.554300,0.554400,1.000000,0.557400,0.557800,0.556300,0.556000,0.551400,0.551400,0.551500,0.551600,0.551700,0.551800,1.000000,1.000000,0.550800,0.552100,0.552100,1.000000,0.551800,0.552400,0.552300,0.552400,0.551200,0.550200,0.549300,0.549300,0.549200,0.549200,0.547800,0.547800,0.547800,0.547800,0.547900,0.547800,0.547600,0.546600,0.546600,0.546600,1.000000,0.546600,0.548500,0.548500,0.548400,0.548400,0.546800,0.546700,0.546400,0.546400,0.546400,0.546500,0.546600,1.000000,1.000000,1.000000,1.000000,0.502200,1.000000,1.000000,1.000000,1.000000,1.000000,1.000000,0.542500,1.000000,1.000000,1.000000,1.000000,1.000000,1.000000,0.538100,1.000000,1.000000,1.000000,1.000000,1.000000,1.000000,1.000000,0.499500,0.499600,0.497400,0.497000,0.497000,0.497100,1.000000,1.000000,1.000000,1.000000,0.536000,1.000000,1.000000,1.000000,1.000000,1.000000,1.000000,1.000000,1.000000,1.000000,1.000000,1.000000,1.000000,1.000000,1.000000,0.497600,0.497500,0.497600,0.497600,0.497600,0.497500,0.497300,0.497300,0.497100,0.497100,1.000000,1.000000,1.000000,1.000000,1.000000,1.000000,1.000000,1.000000,0.537400,1.000000,0.535000,0.535000,0.535000,0.532900,1.000000,1.000000,1.000000,0.499500,0.495200,0.492900,0.492800,0.493600,0.492700,0.492600,0.491200,0.491200,0.491200,0.493000,0.502000,0.506400,0.506400,0.506300,0.505000,0.503800,0.503800,0.503800,1.000000,1.000000,0.505600,0.505600,1.000000,1.000000,1.000000,1.000000,1.000000,1.000000,1.000000,1.000000,1.000000,1.000000,1.000000,1.000000,1.000000,1.000000,1.000000,1.000000,1.000000,1.000000,0.525800,0.525800,0.527800,1.000000,1.000000,1.000000,1.000000,1.000000,1.000000,1.000000,0.506200,0.506200,0.506200,1.000000,1.000000,1.000000,1.000000,1.000000,1.000000,1.000000,1.000000,1.000000,1.000000,1.000000,1.000000,0.482200,0.482200,0.482200,0.482200,1.000000,1.000000,1.000000
1.000000,1.000000,1.000000,1.000000,1.000000,1.000000,1.000000,1.000000,1.000000,1.000000,1.000000,1.000000,1.000000,1.000000,1.000000,1.000000,0.557800,0.557700,0.557600,1.000000,1.000000,0.557200,0.558600,1.000000,1.000000,1.000000,1.000000,1.000000,1.000000,1.000000,1.000000,1.000000,0.555100,0.555100,1.000000,1.000000,1.000000,1.000000,1.000000,1.000000,1.000000,1.000000,1.000000,0.551200,0.556000,0.556200,1.000000,1.000000,1.000000,1.000000,1.000000,1.000000,0.554300,0.554300,0.554400,0.554400,1.000000,0.557800,0.554500,0.554500,0.551300,1.000000,0.551000,0.551400,0.551700,0.551800,1.000000,1.000000,0.550200,0.550800,0.550800,1.000000,0.550800,0.552500,0.552500,0.552500,0.551100,0.549300,0.549300,0.549200,0.547900,0.547900,0.547800,0.547800,0.547800,0.547800,0.547800,0.547800,0.547800,0.547200,0.546500,0.546500,0.546600,0.548500,0.548600,0.548500,0.547000,0.545600,0.545400,0.545500,0.545600,0.546200,0.546200,0.546200,0.546400,1.000000,1.000000,1.000000,0.502400,0.501700,0.501700,1.000000,1.000000,1.000000,0.542400,0.542200,0.542000,0.542000,0.539400,1.000000,0.537300,1.000000,1.000000,1.000000,1.000000,1.000000,1.000000,1.000000,1.000000,1.000000,0.500200,0.500100,0.499600,0.497500,0.497000,0.497000,0.497100,1.000000,1.000000,1.000000,1.000000,1.000000,1.000000,1.000000,1.000000,1.000000,1.000000,1.000000,1.000000,1.000000,1.000000,1.000000,1.000000,1.000000,1.000000,1.000000,1.000000,0.495600,0.495600,0.495400,0.495400,0.494700,0.494600,0.494500,0.494600,1.000000,1.000000,1.000000,1.000000,1.000000,1.000000,1.000000,1.000000,1.000000,1.000000,1.000000,0.535000,0.533100,0.532900,0.532900,0.532900,1.000000,1.000000,0.499800,0.494200,0.494100,0.494100,0.494000,0.493800,0.492500,0.491200,0.491200,0.491200,0.495000,0.500800,0.506400,1.000000,1.000000,1.000000,0.503900,0.503900,0.504600,1.000000,1.000000,0.505600,0.505600,1.000000,1.000000,1.000000,1.000000,1.000000,1.000000,1.000000,1.000000,1.000000,1.000000,1.000000,1.000000,1.000000,1.000000,1.000000,1.000000,1.000000,1.000000,0.525600,0.525700,0.528400,0.528500,1.000000,1.000000,1.000000,0.499900,1.000000,0.504100,0.505000,0.504800,0.501800,1.000000,1.000000,1.000000,1.000000,1.000000,1.000000,1.000000,1.000000,1.000000,1.000000,1.000000,1.000000,0.482200,0.482200,0.482200,0.482200,1.000000,1.000000,1.000000
1.000000,1.000000,1.000000,1.000000,1.000000,1.000000,1.000000,1.000000,1.000000,0.555900,0.558300,0.558500,0.558900,0.559300,1.000000,1.000000,1.000000,0.557700,0.557700,0.557500,1.000000,1.000000,1.000000,1.000000,1.000000,1.000000,1.000000,1.000000,1.000000,1.000000,1.000000,0.555200,0.554500,0.554500,1.000000,0.550300,1.000000,1.000000,0.559300,1.000000,1.000000,1.000000,1.000000,0.553100,0.556100,1.000000,1.000000,1.000000,1.000000,1.000000,1.000000,0.553000,0.552800,0.554300,1.000000,1.000000,0.551600,0.551400,0.551300,0.551200,0.551200,1.000000,1.000000,0.547500,0.550400,0.551800,0.551900,0.550000,0.550000,0.550000,0.550500,1.000000,0.550800,0.551000,0.551100,0.551000,0.551000,0.549300,0.549300,0.547900,0.547900,0.547900,0.547800,0.547800,0.547800,0.549100,0.549100,0.549100,0.547900,0.547800,0.547700,0.547700,0.548600,0.548600,0.548600,0.546900,0.545600,0.545400,0.545400,0.545400,0.545400,0.546000,0.546000,0.546100,0.546300,1.000000,1.000000,1.000000,0.502200,0.501600,0.501600,1.000000,1.000000,1.000000,0.541600,0.541900,1.000000,0.541900,1.000000,1.000000,1.000000,1.000000,1.000000,1.000000,1.000000,1.000000,1.000000,1.000000,1.000000,1.000000,0.500200,0.500100,0.499900,0.497500,0.497000,0.497000,0.498100,1.000000,1.000000,1.000000,1.000000,1.000000,1.000000,1.000000,1.000000,1.000000,1.000000,1.000000,1.000000,1.000000,1.000000,1.000000,1.000000,1.000000,1.000000,1.000000,1.000000,0.494600,0.495300,0.495300,0.494800,0.494700,0.494600,0.494500,0.494500,0.496000,1.000000,1.000000,1.000000,1.000000,1.000000,1.000000,1.000000,1.000000,1.000000,1.000000,1.000000,0.533100,0.533000,0.533000,0.532900,1.000000,1.000000,0.494200,0.494200,0.494100,0.494100,0.494000,0.493900,0.492500,0.492400,0.492400,0.492400,0.495700,0.500700,0.506300,0.506400,0.506400,0.504000,0.504100,0.504500,0.504700,0.504700,0.504800,0.504700,0.501500,0.499800,1.000000,1.000000,1.000000,1.000000,1.000000,1.000000,1.000000,1.000000,1.000000,1.000000,1.000000,1.000000,1.000000,1.000000,1.000000,1.000000,1.000000,1.000000,0.525700,1.000000,1.000000,1.000000,1.000000,1.000000,1.000000,1.000000,0.504100,0.504000,0.504000,0.501800,1.000000,0.501800,1.000000,1.000000,1.000000,1.000000,1.000000,1.000000,1.000000,1.000000,1.000000,1.000000,0.482300,0.482400,0.482400,1.000000,1.000000,1.000000,1.000000
1.000000,1.000000,1.000000,1.000000,1.000000,1.000000,1.000000,1.000000,1.000000,0.557800,0.561000,0.560900,0.559200,0.559300,0.559300,0.559400,1.000000,1.000000,1.000000,1.000000,1.000000,1.000000,1.000000,1.000000,1.000000,1.000000,1.000000,1.000000,1.000000,1.000000,1.000000,1.000000,0.554400,0.554400,1.000000,0.551600,1.000000,0.557700,0.558500,1.000000,1.000000,1.000000,1.000000,1.000000,0.556000,0.554200,0.554200,1.000000,0.550000,0.550000,0.550200,0.551200,1.000000,1.000000,1.000000,0.548800,0.550400,0.550400,0.550500,0.551200,0.551200,0.551200,1.000000,0.545800,0.548100,0.550200,0.550100,0.549800,0.548500,0.548600,0.548600,0.550600,1.000000,0.551000,0.551100,0.551000,0.550900,0.550700,0.549400,0.547900,0.547900,0.547900,0.547800,0.547800,0.547800,0.549100,0.549100,0.547900,0.547900,0.547900,0.547800,0.547900,0.548600,0.547000,0.546700,0.545300,0.545300,0.545300,0.545200,0.545200,0.545300,0.545900,0.546000,0.546000,0.546200,1.000000,1.000000,1.000000,0.501600,0.501600,0.501600,1.000000,1.000000,1.000000,0.541600,0.541600,0.541800,1.000000,1.000000,1.000000,1.000000,1.000000,1.000000,1.000000,1.000000,1.000000,1.000000,1.000000,1.000000,1.000000,0.500100,0.500100,0.500000,0.499900,0.498800,0.498800,0.499800,1.000000,1.000000,1.000000,1.000000,1.000000,1.000000,1.000000,1.000000,0.531700,1.000000,1.000000,1.000000,1.000000,1.000000,0.526000,1.000000,1.000000,1.000000,1.000000,0.493500,0.494200,0.495300,0.495200,0.494900,0.494800,0.494600,0.494500,0.494500,0.494500,1.000000,1.000000,1.000000,1.000000,1.000000,1.000000,1.000000,1.000000,1.000000,1.000000,1.000000,0.533200,0.533000,0.533000,0.532900,1.000000,1.000000,1.000000,0.494100,0.493200,0.492400,0.492500,0.492500,0.492500,0.492400,0.492400,0.492400,0.497000,0.500700,0.502400,0.506300,0.506300,1.000000,0.504100,1.000000,0.504700,0.504700,1.000000,0.501400,0.500000,0.497800,1.000000,1.000000,1.000000,1.000000,1.000000,1.000000,1.000000,1.000000,1.000000,1.000000,1.000000,1.000000,1.000000,1.000000,1.000000,1.000000,1.000000,1.000000,1.000000,1.000000,1.000000,1.000000,1.000000,0.498600,0.497200,0.497200,0.500800,0.501000,0.501700,0.501700,0.501800,0.499600,1.000000,1.000000,1.000000,1.000000,0.501600,0.501600,0.501600,1.000000,1.000000,0.483300,0.483200,0.482900,0.482500,1.000000,1.000000,1.000000,1.000000
0.565400,0.565400,0.563600,1.000000,1.000000,1.000000,1.000000,1.000000,1.000000,0.561100,0.561100,0.561000,0.560900,0.560900,0.560900,1.000000,1.000000,1.000000,1.000000,1.000000,1.000000,1.000000,1.000000,1.000000,1.000000,1.000000,1.000000,1.000000,1.000000,1.000000,1.000000,1.000000,1.000000,1.000000,1.000000,1.000000,1.000000,0.557500,0.557900,1.000000,1.000000,1.000000,1.000000,0.556000,0.556000,0.554000,1.000000,1.000000,0.549000,0.547700,0.549000,0.549000,1.000000,1.000000,1.000000,1.000000,0.548800,0.549100,0.550400,0.550500,1.000000,1.000000,0.545800,0.545800,0.548100,0.548100,0.550000,0.548300,0.548400,0.548500,0.548600,0.550200,0.550300,0.551100,0.551100,0.551000,0.550900,1.000000,1.000000,0.547900,0.547900,0.547900,0.547900,0.548900,0.549000,0.549100,0.549200,0.548000,0.547900,0.547900,0.547900,0.547800,0.547400,0.546500,0.545300,0.545300,0.545200,0.545200,0.545200,0.545200,0.545300,0.546000,0.546000,0.546000,0.546200,1.000000,1.000000,0.501800,0.501600,0.501600,0.501600,1.000000,1.000000,1.000000,0.541600,1.000000,1.000000,1.000000,1.000000,1.000000,1.000000,1.000000,1.000000,1.000000,1.000000,1.000000,1.000000,1.000000,1.000000,0.500000,0.499900,0.499900,0.499900,0.499900,0.499700,0.499600,0.499700,0.499700,1.000000,1.000000,1.000000,1.000000,1.000000,1.000000,0.531600,1.000000,1.000000,1.000000,1.000000,0.524900,0.526000,0.527200,1.000000,1.000000,1.000000,1.000000,0.495400,0.495400,0.495300,0.495100,0.494900,0.494800,0.494600,0.494500,0.494500,0.494500,1.000000,1.000000,1.000000,1.000000,1.000000,1.000000,1.000000,1.000000,1.000000,1.000000,1.000000,1.000000,0.533300,0.533200,1.000000,1.000000,1.000000,1.000000,0.493900,0.492200,0.490800,0.490800,0.490200,0.490200,0.490200,0.492400,0.492500,0.493200,0.498700,0.503900,0.506300,0.506300,0.506300,1.000000,1.000000,1.000000,1.000000,0.501500,0.497800,0.497400,0.497400,1.000000,1.000000,1.000000,1.000000,1.000000,1.000000,1.000000,1.000000,1.000000,1.000000,1.000000,1.000000,0.489600,1.000000,1.000000,1.000000,1.000000,1.000000,1.000000,1.000000,1.000000,1.000000,1.000000,1.000000,1.000000,1.000000,1.000000,1.000000,0.501000,0.500900,0.500800,0.499200,0.499100,1.000000,1.000000,1.000000,0.501500,1.000000,1.000000,1.000000,1.000000,1.000000,0.483200,0.482900,0.482600,1.000000,1.000000,1.000000,1.000000
0.563700,0.563600,0.563600,0.563500,1.000000,1.000000,1.000000,1.000000,1.000000,0.561100,0.561100,0.561100,0.561000,0.560900,0.560900,1.000000,1.000000,1.000000,1.000000,1.000000,1.000000,1.000000,1.000000,1.000000,1.000000,1.000000,1.000000,1.000000,1.000000,1.000000,1.000000,1.000000,1.000000,1.000000,1.000000,1.000000,1.000000,1.000000,0.558800,0.558800,1.000000,1.000000,1.000000,1.000000,0.557500,0.553800,0.552600,1.000000,1.000000,0.547700,0.549000,0.549000,1.000000,1.000000,1.000000,0.548800,0.548900,0.549100,0.550500,0.550500,0.552100,1.000000,0.545800,0.545800,0.549100,1.000000,1.000000,0.548300,0.548400,0.548500,0.548600,0.550200,0.550300,0.551600,0.551500,0.551500,1.000000,1.000000,1.000000,0.547800,0.547800,0.547900,0.547900,0.548800,0.549000,0.549100,0.549200,0.548000,0.548000,0.547900,0.546500,0.545400,0.545300,0.545300,0.545200,0.545200,0.545200,0.545200,0.545200,0.545300,0.546000,0.546000,0.546000,0.546000,0.546200,1.000000,1.000000,0.501800,0.501700,0.501600,1.000000,1.000000,1.000000,1.000000,0.541600,1.000000,1.000000,1.000000,1.000000,1.000000,1.000000,1.000000,1.000000,1.000000,1.000000,1.000000,1.000000,1.000000,1.000000,1.000000,0.499900,0.499800,0.499800,0.499800,0.499500,0.499600,0.499600,0.499600,1.000000,1.000000,1.000000,1.000000,1.000000,1.000000,1.000000,0.531500,1.000000,1.000000,0.524900,0.524900,0.526200,0.527200,1.000000,1.000000,1.000000,1.000000,1.000000,1.000000,0.495300,0.495000,0.494800,0.494800,0.495200,0.494500,0.494500,0.494500,1.000000,1.000000,1.000000,1.000000,1.000000,1.000000,1.000000,1.000000,1.000000,1.000000,1.000000,1.000000,1.000000,1.000000,1.000000,1.000000,1.000000,1.000000,0.491000,0.490800,0.490700,0.490600,0.490100,0.490100,0.490200,0.490700,0.492400,0.492500,0.498700,1.000000,0.506300,0.506300,0.506300,1.000000,1.000000,1.000000,0.502000,0.501500,0.497600,0.497400,1.000000,1.000000,1.000000,1.000000,1.000000,1.000000,1.000000,1.000000,1.000000,1.000000,1.000000,0.489700,0.489700,1.000000,0.486100,1.000000,1.000000,1.000000,1.000000,1.000000,1.000000,1.000000,1.000000,1.000000,1.000000,1.000000,1.000000,1.000000,1.000000,1.000000,0.500900,0.499300,0.499200,1.000000,1.000000,1.000000,1.000000,1.000000,1.000000,1.000000,1.000000,1.000000,0.481600,0.481900,0.482500,0.481100,1.000000,1.000000,1.000000,0.499500
1.000000,0.563500,0.563500,0.563400,1.000000,1.000000,1.000000,1.000000,1.000000,1.000000,1.000000,0.561100,0.561000,0.561000,1.000000,1.000000,1.000000,1.000000,1.000000,1.000000,1.000000,1.000000,1.000000,1.000000,1.000000,1.000000,1.000000,1.000000,1.000000,1.000000,1.000000,0.555400,1.000000,1.000000,1.000000,1.000000,1.000000,1.000000,0.557800,0.557800,1.000000,1.000000,1.000000,1.000000,1.000000,1.000000,0.553800,0.552700,0.549000,0.549000,0.549000,0.550400,1.000000,1.000000,0.550800,0.549000,0.549100,0.550600,0.553500,0.552200,1.000000,1.000000,1.000000,0.551000,0.549100,1.000000,1.000000,1.000000,0.548400,0.549400,0.549600,0.551000,0.551100,0.551400,1.000000,1.000000,1.000000,1.000000,0.547800,0.547700,0.547800,0.547800,0.548000,0.548500,0.548700,0.549000,0.549100,0.548100,0.548000,0.546500,0.546100,0.545400,0.545300,0.545200,0.545200,0.545100,0.545200,0.545200,0.545200,0.546200,0.546000,0.545900,0.545900,0.545900,0.545900,0.544300,1.000000,0.502000,0.501700,0.501700,0.502400,0.501600,1.000000,1.000000,1.000000,1.000000,1.000000,1.000000,1.000000,1.000000,1.000000,1.000000,1.000000,1.000000,1.000000,1.000000,1.000000,1.000000,1.000000,1.000000,0.499700,1.000000,0.499700,0.499400,0.499300,0.497400,0.497500,1.000000,1.000000,1.000000,1.000000,1.000000,1.000000,1.000000,1.000000,1.000000,1.000000,1.000000,1.000000,0.524900,0.526200,0.526800,1.000000,1.000000,1.000000,1.000000,0.494000,0.495400,0.494200,0.494400,0.494500,0.494600,0.494700,0.494500,0.494500,0.494500,1.000000,1.000000,0.532100,0.535300,1.000000,1.000000,1.000000,1.000000,1.000000,1.000000,1.000000,1.000000,1.000000,1.000000,1.000000,1.000000,1.000000,1.000000,0.490800,0.490800,0.490700,0.490500,0.490000,0.490100,0.490100,0.490800,0.490900,0.492400,1.000000,1.000000,1.000000,0.506400,1.000000,1.000000,1.000000,1.000000,1.000000,1.000000,1.000000,1.000000,1.000000,1.000000,1.000000,1.000000,1.000000,1.000000,1.000000,1.000000,1.000000,1.000000,1.000000,1.000000,1.000000,0.487000,0.485600,0.485900,0.492800,0.492800,0.492400,0.491200,0.490400,0.490300,1.000000,1.000000,1.000000,1.000000,1.000000,0.492200,1.000000,1.000000,0.499200,1.000000,1.000000,0.499100,1.000000,1.000000,1.000000,1.000000,1.000000,1.000000,1.000000,1.000000,0.480300,0.480300,0.480700,1.000000,1.000000,1.000000,1.000000,0.499500
1.000000,0.563400,0.563400,0.563300,0.563300,1.000000,1.000000,1.000000,1.000000,1.000000,1.000000,1.000000,1.000000,1.000000,1.000000,1.000000,1.000000,1.000000,1.000000,1.000000,1.000000,1.000000,1.000000,1.000000,1.000000,1.000000,1.000000,1.000000,1.000000,1.000000,0.556000,1.000000,1.000000,1.000000,1.000000,1.000000,1.000000,0.557800,0.557800,0.557800,1.000000,1.000000,1.000000,1.000000,1.000000,0.554600,0.554600,0.554000,0.550300,0.550300,1.000000,0.553000,0.553400,0.553000,0.552800,0.550900,0.550800,0.553100,0.553300,0.553300,0.552200,0.552200,1.000000,0.550800,0.550800,0.549100,0.547600,1.000000,1.000000,0.549600,0.551000,0.551000,0.549500,0.549400,0.549400,1.000000,1.000000,0.548400,0.547600,0.547600,0.547800,0.547900,0.548200,0.548300,0.548400,0.548800,0.548600,0.548200,0.548100,0.547500,0.546400,0.546400,0.545300,0.545100,0.545100,0.545100,0.545200,0.545200,0.546300,0.546300,0.545700,0.545600,0.545700,0.545700,0.545700,0.545700,1.000000,1.000000,0.502500,0.502600,0.502700,0.502600,1.000000,1.000000,1.000000,1.000000,1.000000,1.000000,1.000000,1.000000,1.000000,1.000000,1.000000,1.000000,1.000000,1.000000,1.000000,1.000000,1.000000,1.000000,0.499600,0.499600,0.499400,0.499300,0.498600,0.497400,0.497400,0.497400,1.000000,1.000000,1.000000,1.000000,1.000000,1.000000,1.000000,1.000000,1.000000,1.000000,1.000000,1.000000,1.000000,1.000000,1.000000,1.000000,1.000000,1.000000,0.493900,0.494000,0.494100,0.494200,0.494300,0.495500,0.495500,0.494600,0.494500,0.494600,1.000000,1.000000,1.000000,0.532000,0.521000,1.000000,1.000000,1.000000,1.000000,1.000000,1.000000,1.000000,1.000000,1.000000,1.000000,1.000000,1.000000,1.000000,1.000000,0.488900,0.489600,0.489600,0.489600,0.489800,0.489900,0.490700,0.491000,0.491000,1.000000,1.000000,1.000000,1.000000,1.000000,1.000000,1.000000,1.000000,1.000000,1.000000,1.000000,1.000000,1.000000,1.000000,1.000000,1.000000,1.000000,1.000000,1.000000,1.000000,1.000000,1.000000,1.000000,1.000000,1.000000,1.000000,0.485500,0.492700,0.492700,0.492700,0.491500,0.490400,0.490400,0.490400,0.490300,0.488600,1.000000,1.000000,1.000000,1.000000,1.000000,1.000000,1.000000,1.000000,1.000000,1.000000,1.000000,1.000000,1.000000,0.517400,0.517400,0.517400,1.000000,1.000000,1.000000,0.479800,0.479500,0.479500,1.000000,1.000000,1.000000,0.498200
0.565000,0.565000,1.000000,1.000000,1.000000,1.000000,1.000000,1.000000,1.000000,1.000000,1.000000,1.000000,1.000000,1.000000,1.000000,1.000000,1.000000,1.000000,1.000000,1.000000,1.000000,1.000000,1.000000,1.000000,1.000000,1.000000,1.000000,1.000000,1.000000,1.000000,0.556000,0.556000,0.556000,1.000000,1.000000,1.000000,1.000000,0.556100,0.556100,1.000000,1.000000,1.000000,1.000000,1.000000,0.551200,0.552400,1.000000,0.554600,0.554500,1.000000,1.000000,0.550500,0.553400,0.553400,0.553000,0.552900,0.553000,0.553100,0.553000,0.552200,1.000000,0.552200,1.000000,0.550800,0.550800,1.000000,1.000000,1.000000,1.000000,0.551000,0.551000,0.551000,0.549500,0.549400,0.549300,0.549300,0.549200,0.547200,0.547300,0.547400,0.547800,0.548000,0.547900,0.547600,0.547500,0.547900,0.548400,0.548300,0.547200,0.547200,0.546400,0.546400,0.546400,0.545000,0.545000,0.545000,0.545100,0.545400,0.546400,0.546400,0.545400,0.545400,0.545400,0.545500,0.545500,0.544300,1.000000,1.000000,0.502500,0.502600,0.502800,0.502900,1.000000,1.000000,1.000000,1.000000,1.000000,1.000000,1.000000,1.000000,1.000000,1.000000,1.000000,1.000000,1.000000,1.000000,1.000000,1.000000,1.000000,0.500800,0.499500,0.499500,0.499400,0.499300,0.499200,0.497300,0.497300,0.497300,1.000000,1.000000,1.000000,1.000000,1.000000,1.000000,1.000000,1.000000,1.000000,1.000000,1.000000,1.000000,1.000000,1.000000,1.000000,1.000000,1.000000,1.000000,0.493900,0.494000,0.494000,0.494100,0.495400,0.495400,0.495400,0.494600,0.494600,0.494700,0.494700,1.000000,1.000000,0.521000,1.000000,1.000000,1.000000,1.000000,1.000000,1.000000,1.000000,1.000000,1.000000,1.000000,1.000000,1.000000,1.000000,1.000000,1.000000,0.489200,0.489300,0.489400,0.489500,0.489700,0.489800,0.490000,0.490700,0.490900,1.000000,1.000000,1.000000,1.000000,1.000000,1.000000,1.000000,1.000000,1.000000,1.000000,1.000000,1.000000,1.000000,1.000000,1.000000,1.000000,1.000000,1.000000,1.000000,1.000000,1.000000,1.000000,1.000000,1.000000,1.000000,0.485300,0.485200,0.492500,0.492500,0.492400,0.491500,0.490500,0.490400,0.490400,0.490300,0.489900,0.489700,0.492000,0.492000,0.492200,1.000000,1.000000,1.000000,1.000000,1.000000,1.000000,0.520800,1.000000,0.522400,0.522500,0.522800,0.521200,0.521200,1.000000,1.000000,0.479600,0.479500,0.478300,0.478300,1.000000,1.000000,0.496200
0.565000,1.000000,1.000000,1.000000,1.000000,1.000000,1.000000,1.000000,1.000000,1.000000,1.000000,0.560300,0.560300,1.000000,1.000000,1.000000,0.550000,0.556200,0.558100,0.558100,1.000000,1.000000,1.000000,1.000000,1.000000,1.000000,1.000000,1.000000,1.000000,1.000000,0.557700,0.557700,0.556100,1.000000,1.000000,0.556000,0.556100,1.000000,1.000000,0.555000,0.555000,1.000000,0.547600,0.547600,0.551100,0.551100,0.552300,0.552300,1.000000,0.550500,0.550600,0.550600,0.552300,0.553400,0.553400,0.553100,0.553000,0.553000,0.552400,0.552400,0.551600,0.551100,1.000000,0.550800,1.000000,1.000000,1.000000,1.000000,1.000000,0.549600,0.549600,0.549600,0.549500,0.549400,0.549400,0.549400,0.549300,0.547100,0.547200,0.547200,0.547900,0.547900,0.547800,0.547600,0.547400,0.547400,0.547200,0.547100,0.547100,0.547100,0.546400,0.546400,0.545000,0.544800,0.544800,0.544900,0.545100,0.546400,0.546400,0.546500,0.545200,0.545300,0.545400,0.545300,0.545300,0.543000,1.000000,1.000000,0.502500,0.502900,0.503000,0.503100,1.000000,1.000000,1.000000,1.000000,1.000000,1.000000,1.000000,1.000000,1.000000,1.000000,1.000000,1.000000,1.000000,1.000000,1.000000,1.000000,1.000000,0.500800,0.499400,0.499400,0.499300,0.499300,0.499200,0.498400,0.497100,0.497100,1.000000,1.000000,1.000000,1.000000,1.000000,1.000000,1.000000,1.000000,1.000000,1.000000,1.000000,1.000000,1.000000,1.000000,1.000000,1.000000,1.000000,1.000000,0.493900,0.494000,0.494100,0.494200,0.494200,0.495300,0.495300,0.495100,0.494900,0.495000,1.000000,1.000000,1.000000,1.000000,1.000000,1.000000,1.000000,1.000000,1.000000,1.000000,1.000000,1.000000,1.000000,1.000000,1.000000,1.000000,1.000000,1.000000,1.000000,0.489200,0.489300,0.489300,0.489300,0.489400,0.489600,0.490000,0.490100,0.490100,1.000000,1.000000,1.000000,1.000000,1.000000,1.000000,1.000000,1.000000,1.000000,1.000000,1.000000,1.000000,0.533500,1.000000,1.000000,1.000000,1.000000,1.000000,1.000000,1.000000,1.000000,1.000000,1.000000,1.000000,1.000000,1.000000,0.485100,0.492500,0.492400,0.491600,0.491600,0.491600,0.491700,0.491700,0.491600,0.491600,0.491600,0.491900,0.492000,1.000000,1.000000,1.000000,1.000000,1.000000,0.521800,0.524500,0.522200,0.522200,0.522400,0.522900,0.523200,0.522600,0.522600,1.000000,1.000000,0.479500,0.478300,0.478300,1.000000,1.000000,1.000000,0.494500
1.000000,1.000000,1.000000,1.000000,1.000000,1.000000,1.000000,1.000000,1.000000,0.559300,0.559300,0.559400,0.559500,0.560400,1.000000,1.000000,0.556200,0.556200,0.558000,0.558000,1.000000,1.000000,1.000000,1.000000,1.000000,1.000000,1.000000,1.000000,1.000000,1.000000,0.558000,1.000000,0.555700,0.555300,0.555200,0.555200,1.000000,1.000000,1.000000,0.555000,0.553000,1.000000,1.000000,0.550500,0.551100,0.552400,0.552300,0.552300,0.550600,1.000000,0.550700,0.550700,0.552300,0.553400,0.553400,1.000000,1.000000,0.553000,0.552200,0.552200,0.551300,0.551200,1.000000,1.000000,1.000000,1.000000,1.000000,1.000000,1.000000,0.543600,0.547600,0.549600,0.549500,0.549500,0.549400,0.549400,0.549400,0.547000,0.547000,0.547000,0.547800,0.547800,0.547800,0.547600,0.547400,0.547200,0.547100,0.547100,0.545900,0.545700,0.544900,0.544800,0.544700,0.544600,0.544600,0.544700,0.546400,0.546500,0.546500,0.546500,0.544700,0.544800,0.545200,0.545300,0.545300,0.544600,1.000000,1.000000,0.502300,0.502500,0.503100,1.000000,1.000000,1.000000,1.000000,1.000000,1.000000,1.000000,1.000000,1.000000,1.000000,1.000000,1.000000,1.000000,1.000000,1.000000,1.000000,1.000000,1.000000,1.000000,1.000000,0.499400,0.499300,0.499300,0.498400,0.497000,0.497000,1.000000,1.000000,1.000000,1.000000,1.000000,1.000000,1.000000,1.000000,1.000000,1.000000,1.000000,1.000000,1.000000,1.000000,1.000000,1.000000,1.000000,1.000000,1.000000,0.494000,0.494100,0.494100,0.494200,0.494300,0.494500,0.495200,0.495200,0.495200,0.495100,0.495100,1.000000,1.000000,1.000000,1.000000,1.000000,1.000000,1.000000,1.000000,1.000000,1.000000,1.000000,1.000000,1.000000,1.000000,1.000000,1.000000,1.000000,1.000000,0.489200,0.489300,0.489300,0.489300,0.489300,0.489000,0.489900,0.490000,0.490100,1.000000,1.000000,1.000000,1.000000,1.000000,1.000000,1.000000,1.000000,1.000000,1.000000,0.534700,0.534700,0.531800,0.531800,1.000000,1.000000,1.000000,1.000000,1.000000,1.000000,1.000000,1.000000,1.000000,1.000000,1.000000,0.485000,0.485000,0.485200,0.492400,0.491600,0.491600,0.491700,0.491800,0.491700,0.491700,0.491600,0.491700,0.491800,0.491900,0.492000,1.000000,1.000000,1.000000,1.000000,1.000000,0.525100,0.525100,0.525000,0.525000,0.524900,0.524800,0.524400,0.524400,1.000000,1.000000,0.480300,0.478300,0.478300,1.000000,1.000000,1.000000,0.494800
1.000000,1.000000,1.000000,1.000000,1.000000,0.561700,0.561700,0.559500,0.559400,0.559400,0.559400,0.559400,0.559500,0.560200,0.560500,1.000000,0.558000,0.558000,0.558000,0.558000,1.000000,0.557900,1.000000,1.000000,1.000000,1.000000,1.000000,1.000000,1.000000,1.000000,1.000000,1.000000,0.553900,0.553900,0.553900,1.000000,0.555100,1.000000,1.000000,1.000000,0.553100,1.000000,1.000000,0.550500,0.552400,0.552400,0.552400,0.550700,0.550700,0.550700,0.550700,0.550800,0.552300,0.552500,1.000000,1.000000,1.000000,1.000000,0.553000,1.000000,1.000000,0.551100,0.551100,0.552600,1.000000,1.000000,1.000000,0.552100,0.549300,0.543500,0.543500,0.549600,0.549600,0.549500,0.549500,1.000000,1.000000,0.547000,0.546900,0.546900,0.547800,0.547800,0.547800,0.547700,0.547200,0.547100,0.547000,0.547000,0.545800,0.545100,0.544800,0.544800,0.544600,0.544400,0.544400,0.544600,0.546500,0.546500,0.546500,0.545100,0.544500,0.544500,0.544700,0.545100,0.544800,1.000000,1.000000,1.000000,0.502200,0.502300,0.503100,1.000000,1.000000,1.000000,1.000000,1.000000,1.000000,1.000000,1.000000,1.000000,1.000000,1.000000,1.000000,1.000000,1.000000,1.000000,1.000000,1.000000,1.000000,1.000000,1.000000,1.000000,1.000000,1.000000,1.000000,1.000000,1.000000,1.000000,1.000000,1.000000,1.000000,1.000000,1.000000,1.000000,1.000000,1.000000,1.000000,1.000000,1.000000,1.000000,1.000000,1.000000,1.000000,1.000000,1.000000,1.000000,0.494100,0.494200,0.494200,0.494300,0.494400,0.494500,0.495100,0.495200,0.495300,0.495300,0.495200,1.000000,1.000000,1.000000,1.000000,1.000000,1.000000,1.000000,1.000000,1.000000,1.000000,1.000000,1.000000,1.000000,1.000000,1.000000,1.000000,1.000000,1.000000,0.489300,0.489300,0.489300,0.489300,0.487700,0.487800,0.489700,0.489900,1.000000,1.000000,1.000000,1.000000,1.000000,1.000000,1.000000,1.000000,1.000000,1.000000,0.530400,0.534700,0.534700,0.531800,0.531800,0.531900,1.000000,1.000000,1.000000,1.000000,1.000000,1.000000,1.000000,1.000000,1.000000,1.000000,1.000000,0.485000,0.488000,0.492500,0.491600,0.491700,0.491800,0.491900,0.491800,0.491700,0.491700,0.491700,0.491800,0.491800,1.000000,1.000000,1.000000,1.000000,0.527200,0.528400,0.525200,0.525100,0.525100,0.525000,0.524900,0.524800,0.524400,0.524300,0.524300,1.000000,0.481000,0.478300,0.478300,1.000000,1.000000,1.000000,1.000000
1.000000,1.000000,1.000000,1.000000,1.000000,1.000000,1.000000,0.559600,0.559500,0.559500,0.559500,0.559500,0.559500,0.559600,0.560600,1.000000,0.561000,0.560500,1.000000,0.558000,0.558000,0.557900,0.557400,0.556000,1.000000,1.000000,1.000000,1.000000,1.000000,1.000000,1.000000,1.000000,1.000000,1.000000,1.000000,1.000000,1.000000,1.000000,1.000000,1.000000,1.000000,1.000000,1.000000,0.552400,0.553900,0.553900,0.553900,0.550800,0.550700,0.550700,0.550700,0.550800,0.550800,1.000000,1.000000,1.000000,1.000000,1.000000,0.553000,1.000000,1.000000,1.000000,0.551200,0.552600,0.552600,1.000000,0.552200,0.551900,0.549400,1.000000,1.000000,1.000000,0.549700,0.549600,0.549600,1.000000,1.000000,1.000000,1.000000,0.546800,0.547800,0.547800,0.547800,0.547700,0.547000,0.546900,0.546700,0.546000,0.545900,0.545000,0.544800,0.544800,0.544600,0.544300,0.544300,0.544400,1.000000,0.546500,0.546300,0.544400,0.544200,0.544200,0.543800,0.543700,1.000000,1.000000,1.000000,1.000000,0.500200,0.500200,1.000000,1.000000,1.000000,1.000000,1.000000,1.000000,1.000000,1.000000,1.000000,1.000000,1.000000,1.000000,1.000000,1.000000,1.000000,1.000000,1.000000,1.000000,1.000000,1.000000,1.000000,1.000000,1.000000,1.000000,1.000000,1.000000,1.000000,1.000000,1.000000,1.000000,1.000000,1.000000,1.000000,1.000000,1.000000,1.000000,1.000000,1.000000,1.000000,1.000000,1.000000,1.000000,1.000000,1.000000,1.000000,1.000000,0.496000,0.494300,0.494300,0.494500,0.494600,0.494700,0.495000,0.495100,0.495300,0.495400,1.000000,1.000000,1.000000,1.000000,1.000000,1.000000,1.000000,1.000000,1.000000,1.000000,1.000000,1.000000,1.000000,1.000000,1.000000,1.000000,1.000000,1.000000,0.489900,0.489800,0.489500,0.489400,0.487700,0.487700,0.487800,0.487900,0.489600,0.489600,1.000000,1.000000,1.000000,1.000000,1.000000,1.000000,1.000000,1.000000,1.000000,1.000000,0.534700,0.534700,0.531900,0.532000,0.532200,0.532200,1.000000,1.000000,1.000000,1.000000,1.000000,1.000000,1.000000,1.000000,1.000000,1.000000,1.000000,0.492500,1.000000,0.492500,0.492300,0.492200,0.492100,0.490300,0.490300,0.491700,0.491700,1.000000,0.491800,0.490100,1.000000,1.000000,1.000000,0.525600,0.528400,0.527100,0.525200,0.525100,0.525000,0.524900,0.524700,0.523700,0.524000,0.524300,1.000000,0.480900,0.478200,0.478200,0.478300,1.000000,1.000000,1.000000
1.000000,1.000000,1.000000,1.000000,1.000000,1.000000,1.000000,0.561400,0.559600,0.559700,0.560500,0.559900,0.559500,0.559500,1.000000,0.561000,0.561000,0.560900,0.560400,0.558000,0.557900,0.557300,0.557300,0.555900,0.557300,1.000000,1.000000,1.000000,1.000000,1.000000,1.000000,1.000000,1.000000,1.000000,1.000000,1.000000,1.000000,1.000000,1.000000,1.000000,1.000000,1.000000,1.000000,1.000000,1.000000,0.554000,1.000000,0.551100,0.550800,0.550800,0.549400,1.000000,1.000000,1.000000,1.000000,1.000000,1.000000,1.000000,1.000000,1.000000,1.000000,1.000000,0.551200,0.551200,0.551200,0.551300,0.551300,0.550900,0.549400,1.000000,1.000000,1.000000,1.000000,1.000000,1.000000,1.000000,1.000000,1.000000,1.000000,1.000000,0.546500,0.547700,0.546400,0.547700,0.546800,0.546600,0.546400,0.545600,0.545200,0.545000,0.544800,0.544700,1.000000,1.000000,1.000000,1.000000,1.000000,1.000000,1.000000,1.000000,1.000000,1.000000,1.000000,1.000000,1.000000,1.000000,1.000000,1.000000,1.000000,1.000000,1.000000,1.000000,1.000000,1.000000,1.000000,1.000000,1.000000,1.000000,1.000000,1.000000,1.000000,1.000000,1.000000,1.000000,1.000000,1.000000,1.000000,1.000000,1.000000,1.000000,1.000000,1.000000,1.000000,1.000000,1.000000,1.000000,1.000000,1.000000,0.176300,0.175400,0.175400,0.175400,0.175500,1.000000,1.000000,1.000000,1.000000,1.000000,1.000000,1.000000,1.000000,1.000000,1.000000,1.000000,1.000000,1.000000,1.000000,0.496000,0.495900,0.495900,0.494700,0.494700,0.494800,0.494700,0.495200,0.495300,0.495300,1.000000,1.000000,1.000000,1.000000,1.000000,1.000000,1.000000,1.000000,1.000000,1.000000,1.000000,1.000000,1.000000,1.000000,1.000000,1.000000,1.000000,1.000000,0.490000,0.489900,0.489800,0.489000,0.487800,0.487800,0.487900,0.489500,0.489500,1.000000,1.000000,1.000000,0.528200,0.528300,1.000000,1.000000,1.000000,1.000000,1.000000,1.000000,0.531900,0.529500,0.532100,0.532200,0.532200,0.532300,1.000000,1.000000,1.000000,1.000000,1.000000,1.000000,1.000000,1.000000,1.000000,1.000000,0.491300,0.492900,0.492500,0.492400,0.491400,0.490500,0.489700,0.490000,0.490300,0.491500,0.491700,1.000000,0.490000,1.000000,1.000000,1.000000,0.524300,1.000000,0.527300,1.000000,0.525100,0.525000,0.524800,0.523400,0.523500,0.523500,0.524300,1.000000,0.480800,0.478200,0.478200,0.478200,1.000000,1.000000,1.000000
1.000000,1.000000,1.000000,1.000000,1.000000,1.000000,1.000000,1.000000,0.561200,0.561100,0.561000,0.560800,0.560800,1.000000,0.560900,0.561000,0.560900,0.560400,0.558400,0.558100,1.000000,1.000000,1.000000,0.555900,0.556600,1.000000,1.000000,1.000000,1.000000,1.000000,1.000000,1.000000,1.000000,1.000000,1.000000,1.000000,1.000000,1.000000,1.000000,1.000000,1.000000,1.000000,1.000000,1.000000,1.000000,0.554000,0.553900,0.551400,0.550800,0.548200,1.000000,1.000000,1.000000,0.553700,0.554300,0.553900,0.546500,0.546500,0.546500,0.548300,0.550000,0.550000,0.550000,0.550000,0.551100,0.551100,0.550900,0.549500,1.000000,1.000000,1.000000,1.000000,1.000000,1.000000,1.000000,1.000000,1.000000,1.000000,1.000000,1.000000,1.000000,1.000000,1.000000,1.000000,1.000000,1.000000,1.000000,1.000000,1.000000,1.000000,1.000000,1.000000,1.000000,1.000000,1.000000,1.000000,1.000000,1.000000,1.000000,1.000000,1.000000,1.000000,1.000000,1.000000,1.000000,1.000000,1.000000,1.000000,1.000000,1.000000,1.000000,1.000000,1.000000,1.000000,1.000000,1.000000,1.000000,1.000000,1.000000,1.000000,1.000000,1.000000,1.000000,0.175600,0.175600,0.175600,0.175600,0.175700,0.175600,0.175600,0.175100,0.175200,0.175100,0.175000,0.174900,0.174700,0.174600,0.174500,0.174400,0.174400,0.174400,0.175500,0.175500,1.000000,1.000000,1.000000,1.000000,1.000000,1.000000,1.000000,1.000000,1.000000,1.000000,1.000000,1.000000,1.000000,1.000000,1.000000,0.495900,0.495900,0.494800,0.494500,0.493000,0.492900,0.494000,0.494800,0.495200,1.000000,1.000000,1.000000,1.000000,1.000000,1.000000,1.000000,1.000000,1.000000,1.000000,1.000000,1.000000,1.000000,1.000000,1.000000,1.000000,1.000000,1.000000,1.000000,0.490000,0.489900,0.489100,0.489000,0.487800,0.489500,0.489500,0.489500,1.000000,1.000000,1.000000,1.000000,1.000000,1.000000,1.000000,1.000000,1.000000,1.000000,1.000000,0.529400,0.528900,0.529500,0.532400,0.532400,0.531300,0.529300,1.000000,1.000000,1.000000,1.000000,1.000000,1.000000,1.000000,1.000000,0.486700,0.489400,0.491300,0.492500,0.491400,0.490700,0.489600,0.489600,0.489800,0.490200,0.490600,0.490700,0.490200,1.000000,1.000000,1.000000,1.000000,0.523500,0.524100,0.525200,1.000000,1.000000,0.525000,0.523200,0.522000,0.521900,0.523500,0.523500,1.000000,0.480600,0.478100,0.478100,0.478100,1.000000,1.000000,1.000000
1.000000,1.000000,1.000000,1.000000,1.000000,1.000000,1.000000,1.000000,1.000000,0.559000,0.560900,0.560800,0.560800,0.560900,0.561000,0.560800,0.558600,0.558500,0.558500,0.558200,0.558000,0.557800,0.557000,0.556800,0.557700,1.000000,1.000000,1.000000,1.000000,1.000000,1.000000,1.000000,1.000000,1.000000,1.000000,1.000000,1.000000,1.000000,1.000000,1.000000,1.000000,1.000000,1.000000,1.000000,1.000000,1.000000,0.553900,0.553800,1.000000,0.550800,1.000000,1.000000,1.000000,0.553700,0.553700,0.553700,0.546500,0.546500,0.546500,0.548500,0.550000,0.550000,1.000000,0.550000,0.550600,0.549800,0.549600,1.000000,1.000000,1.000000,1.000000,1.000000,1.000000,1.000000,1.000000,1.000000,1.000000,1.000000,1.000000,1.000000,1.000000,1.000000,1.000000,1.000000,1.000000,1.000000,1.000000,1.000000,1.000000,1.000000,1.000000,1.000000,1.000000,1.000000,1.000000,1.000000,1.000000,1.000000,1.000000,1.000000,1.000000,1.000000,1.000000,1.000000,0.178200,0.178100,0.178000,0.178000,0.177700,0.177600,0.177400,0.177300,0.177200,0.176800,0.176500,0.176500,0.176400,0.176300,0.176200,0.175900,0.175800,0.175600,0.175600,0.175600,0.175500,0.175600,0.175600,0.175600,0.175600,0.175200,0.174800,0.174800,0.175000,0.174900,0.174800,0.174600,0.174500,0.174400,0.174400,0.174400,0.174400,0.175500,0.175600,1.000000,1.000000,1.000000,1.000000,1.000000,1.000000,1.000000,1.000000,1.000000,1.000000,1.000000,1.000000,1.000000,1.000000,1.000000,1.000000,1.000000,0.493500,0.492000,0.492000,0.493000,0.493700,0.493800,1.000000,1.000000,1.000000,1.000000,1.000000,1.000000,1.000000,1.000000,1.000000,1.000000,1.000000,1.000000,1.000000,1.000000,1.000000,1.000000,1.000000,1.000000,1.000000,1.000000,0.490700,0.490600,0.489600,0.489600,0.489600,0.489800,0.490300,0.490600,0.490800,1.000000,1.000000,1.000000,1.000000,1.000000,1.000000,1.000000,1.000000,1.000000,1.000000,0.527500,1.000000,0.527600,0.531200,0.531000,0.529300,0.529200,1.000000,1.000000,1.000000,1.000000,1.000000,1.000000,0.488000,0.488000,0.489400,0.489400,0.491300,0.490800,0.490700,0.489500,0.489600,0.489600,0.489800,0.490200,0.490400,0.490600,0.489000,0.488800,1.000000,1.000000,1.000000,0.523500,0.523500,1.000000,1.000000,1.000000,0.523100,0.522100,0.521800,0.521400,0.521400,0.521400,1.000000,1.000000,0.478100,0.478100,1.000000,1.000000,1.000000,1.000000
1.000000,1.000000,1.000000,0.564500,1.000000,1.000000,1.000000,1.000000,1.000000,0.558900,0.559000,1.000000,0.560900,0.561000,0.560300,0.559000,0.558600,0.558500,0.558500,0.558500,0.559000,0.559200,0.559400,0.559500,0.560500,1.000000,1.000000,1.000000,1.000000,1.000000,1.000000,1.000000,1.000000,1.000000,1.000000,1.000000,1.000000,1.000000,1.000000,1.000000,1.000000,1.000000,1.000000,1.000000,1.000000,1.000000,1.000000,0.553800,0.553700,0.553700,1.000000,1.000000,1.000000,0.553600,0.553600,1.000000,1.000000,1.000000,0.546600,0.546600,0.550000,0.550000,0.550000,1.000000,1.000000,0.549800,0.549600,1.000000,1.000000,1.000000,1.000000,1.000000,1.000000,1.000000,1.000000,1.000000,1.000000,1.000000,1.000000,1.000000,1.000000,1.000000,1.000000,1.000000,1.000000,1.000000,1.000000,1.000000,1.000000,1.000000,1.000000,0.178600,1.000000,0.178900,1.000000,0.178200,0.178200,0.178200,0.178200,0.178200,0.178200,0.178200,0.178200,0.178200,0.178200,0.178000,0.178000,0.177900,0.177700,0.177600,0.177400,0.177300,0.177200,0.176500,0.176400,0.176400,0.176300,0.176200,0.176100,0.175900,0.175800,0.175600,0.175500,0.175500,0.175500,0.175500,0.175500,0.175600,0.175500,0.174800,0.174800,0.174700,0.174700,0.174700,0.174600,0.174500,0.174400,0.174400,0.174400,0.174400,0.174400,0.175400,0.175700,1.000000,1.000000,1.000000,1.000000,1.000000,1.000000,1.000000,1.000000,1.000000,1.000000,1.000000,1.000000,1.000000,1.000000,1.000000,1.000000,1.000000,1.000000,0.492000,0.492000,0.493300,0.493600,0.493700,1.000000,1.000000,1.000000,1.000000,1.000000,0.532200,1.000000,1.000000,1.000000,1.000000,1.000000,1.000000,1.000000,0.501700,0.501700,0.501700,1.000000,1.000000,1.000000,0.490800,0.490800,0.490700,0.490700,0.489700,0.489800,0.490100,0.490300,0.490600,1.000000,1.000000,1.000000,1.000000,1.000000,1.000000,1.000000,1.000000,1.000000,1.000000,1.000000,1.000000,1.000000,1.000000,1.000000,1.000000,0.529300,0.529100,1.000000,1.000000,1.000000,1.000000,1.000000,1.000000,0.489400,0.489400,0.489400,0.490000,0.491300,0.490700,0.490700,0.489500,0.489600,0.489600,0.489900,0.490000,0.490300,0.489200,0.489000,0.488100,1.000000,1.000000,1.000000,0.523500,0.523500,1.000000,1.000000,0.523400,0.522200,1.000000,0.521500,0.521300,0.521300,0.521300,1.000000,1.000000,0.478000,0.478000,0.478000,1.000000,1.000000,1.000000
0.562600,0.562600,0.562900,0.564500,0.564500,0.564500,1.000000,1.000000,0.558900,0.558900,1.000000,1.000000,1.000000,0.561200,0.559100,0.558600,0.558500,0.558500,0.558600,0.560000,0.560600,0.560600,0.560600,0.561900,1.000000,0.555000,1.000000,1.000000,1.000000,0.553900,0.554000,0.554000,0.554000,0.554000,1.000000,1.000000,1.000000,1.000000,1.000000,1.000000,1.000000,1.000000,1.000000,1.000000,0.550900,0.550800,0.552900,0.552300,0.552600,1.000000,1.000000,1.000000,1.000000,1.000000,1.000000,1.000000,1.000000,1.000000,1.000000,1.000000,1.000000,1.000000,1.000000,1.000000,1.000000,1.000000,1.000000,1.000000,1.000000,1.000000,1.000000,0.181500,0.181300,0.181100,0.180200,0.180200,0.180200,0.180200,0.180500,0.180600,0.180700,0.180700,0.179400,0.179400,0.179400,1.000000,0.179400,0.179200,0.179100,0.178800,0.178600,0.178600,0.178500,0.178400,0.178300,0.178200,0.178200,0.178200,0.178200,0.178200,0.178200,0.178200,0.178200,0.178200,0.178100,0.178000,0.177900,0.177900,0.177700,0.177600,0.177400,0.177200,0.177200,0.176400,0.176400,0.176300,0.176200,0.176100,0.176000,0.175700,0.175700,0.175500,0.175400,0.175400,0.175400,0.175400,0.175400,0.175400,0.175300,0.174700,0.174700,0.174600,0.174500,0.174500,0.174400,0.174300,0.174300,0.174200,0.174200,0.174300,0.174300,0.174400,0.175800,0.175800,0.175900,1.000000,1.000000,1.000000,1.000000,1.000000,1.000000,1.000000,0.172600,1.000000,1.000000,1.000000,1.000000,1.000000,0.172200,1.000000,1.000000,1.000000,0.493400,0.493400,0.493500,0.493500,0.493500,1.000000,1.000000,0.532600,0.532300,0.532200,1.000000,1.000000,1.000000,1.000000,1.000000,0.502400,0.500400,0.500400,0.500400,0.500500,0.500500,0.499500,0.496000,0.490900,0.490800,0.490800,0.490700,0.489800,0.489900,0.490200,0.490300,0.490200,0.489300,1.000000,1.000000,1.000000,1.000000,1.000000,1.000000,1.000000,1.000000,1.000000,1.000000,1.000000,1.000000,1.000000,1.000000,1.000000,1.000000,1.000000,1.000000,1.000000,1.000000,1.000000,1.000000,0.490000,0.489500,0.489500,0.489300,0.490200,0.491500,0.490700,0.490600,0.489600,0.489600,0.489600,0.489700,0.489600,0.489200,0.489000,0.488800,0.488500,0.488000,0.488200,1.000000,0.523600,0.523600,0.523600,0.523600,0.523300,0.522700,0.522300,0.522300,1.000000,0.521300,0.521200,1.000000,1.000000,0.478000,0.477900,1.000000,1.000000,1.000000,0.486200
0.560200,0.560200,0.562500,0.562900,1.000000,1.000000,1.000000,0.558800,0.558800,0.558800,0.558700,0.558700,0.558700,0.558900,0.558400,0.558300,0.557300,0.557300,0.558500,0.558500,0.558500,0.558400,0.558400,1.000000,1.000000,0.555000,1.000000,1.000000,1.000000,0.553900,0.554000,0.554000,0.554100,0.553900,1.000000,1.000000,1.000000,1.000000,1.000000,1.000000,1.000000,1.000000,1.000000,0.550800,0.550800,0.550600,0.550500,0.550500,1.000000,1.000000,1.000000,1.000000,1.000000,1.000000,1.000000,1.000000,1.000000,1.000000,1.000000,1.000000,1.000000,1.000000,1.000000,1.000000,1.000000,1.000000,1.000000,1.000000,1.000000,0.180300,0.180300,0.180400,0.180400,0.180300,0.180200,0.180100,0.180100,0.180200,0.180400,0.180500,0.180600,0.179800,0.179400,0.179400,0.179400,0.179400,0.179300,0.179200,0.179100,0.178800,0.178700,0.178500,0.178500,0.178300,0.178300,0.178200,0.178200,0.178100,0.178100,0.178100,0.178100,0.178100,0.178100,0.178000,0.177900,0.177800,0.177700,0.177600,0.177500,0.177400,0.177200,0.177200,0.177100,0.176300,0.176200,0.176200,0.176100,0.176000,0.175900,0.175700,0.175600,0.175500,0.175400,0.175400,0.175400,0.175400,0.175400,0.175400,0.175000,0.174700,0.174700,0.174600,0.174500,0.174400,0.174400,0.174200,0.174200,0.174100,0.174200,0.174200,0.174200,0.174300,0.174300,0.175800,0.175900,0.175900,1.000000,0.173600,0.173200,0.173000,1.000000,1.000000,0.172600,0.172600,0.172500,0.172500,0.172400,0.172300,0.172200,0.172200,1.000000,1.000000,0.493500,0.493400,0.493400,0.493000,0.492700,1.000000,1.000000,1.000000,0.532400,1.000000,1.000000,1.000000,1.000000,1.000000,0.500400,0.500400,0.500400,0.500400,0.500400,0.500400,0.499500,0.499500,0.496000,0.491000,0.490900,0.490800,0.489900,0.489900,0.490100,0.490300,0.490300,0.489000,0.488800,1.000000,1.000000,1.000000,1.000000,1.000000,1.000000,1.000000,1.000000,1.000000,1.000000,1.000000,1.000000,1.000000,1.000000,1.000000,1.000000,1.000000,1.000000,1.000000,1.000000,1.000000,1.000000,1.000000,0.487300,0.487400,0.488800,0.491500,0.491600,0.491900,0.491800,0.490700,0.489700,0.489700,0.489700,0.489400,0.489100,0.489000,0.488700,0.488600,1.000000,1.000000,1.000000,0.523600,0.523700,0.523700,0.523800,0.524600,0.524600,0.522600,0.522500,1.000000,1.000000,1.000000,1.000000,0.475400,1.000000,1.000000,1.000000,1.000000,1.000000,0.490200
0.560200,0.560200,1.000000,1.000000,1.000000,1.000000,1.000000,1.000000,0.558800,0.558700,0.558600,0.558600,0.558600,0.558500,0.558100,0.557400,0.557400,0.557300,0.558500,0.558500,0.558600,0.558400,1.000000,1.000000,1.000000,1.000000,1.000000,1.000000,1.000000,1.000000,0.553900,0.554000,0.554000,0.554100,0.554400,1.000000,1.000000,1.000000,1.000000,1.000000,1.000000,1.000000,1.000000,0.550800,0.550700,0.550500,0.550400,0.550500,1.000000,1.000000,1.000000,1.000000,1.000000,1.000000,1.000000,1.000000,1.000000,1.000000,1.000000,1.000000,1.000000,1.000000,1.000000,0.179600,0.179500,0.179500,0.179400,1.000000,0.179500,0.179600,0.179700,0.180300,0.180200,0.180200,0.180000,0.180000,0.180000,0.180000,0.180200,0.180400,0.179800,0.179500,0.179400,0.179400,0.179400,0.179300,0.179300,0.179200,0.179100,0.178900,0.178700,0.178600,0.178400,0.178300,0.178200,0.178100,0.178100,0.178100,0.178000,0.178100,0.178100,0.178000,0.178000,0.177900,0.177800,0.177600,0.177600,0.177500,0.177400,0.177300,0.177200,0.177100,0.177000,0.176300,0.176200,0.176100,0.176000,0.175900,0.175800,0.175600,0.175500,0.175400,0.175400,0.175400,0.175400,0.175400,0.175300,0.175200,0.174900,0.174800,0.174700,0.174500,0.174400,0.174300,0.174300,0.174100,0.174100,0.174000,0.174100,0.174100,0.174100,0.174000,0.173800,0.173800,0.173700,0.173700,0.173600,0.173200,0.173100,0.172900,0.172800,0.172700,0.172700,0.172700,0.172600,0.172600,0.172400,0.172400,0.172300,1.000000,1.000000,1.000000,0.493500,0.493400,0.493200,0.492900,0.492800,1.000000,1.000000,1.000000,1.000000,1.000000,1.000000,1.000000,1.000000,1.000000,0.497900,0.498000,0.500300,0.500200,0.499900,0.499600,0.499600,0.499500,0.496000,0.491000,0.489700,0.489700,0.489800,0.489900,0.491200,0.491200,0.490300,0.488600,1.000000,1.000000,1.000000,1.000000,1.000000,1.000000,1.000000,1.000000,1.000000,1.000000,1.000000,1.000000,1.000000,1.000000,1.000000,1.000000,1.000000,0.496200,0.492600,0.492600,1.000000,1.000000,1.000000,1.000000,1.000000,1.000000,1.000000,0.487500,0.492200,0.492100,0.492000,0.491900,0.489800,0.489800,0.489700,0.489600,0.489000,0.488900,0.488700,0.488600,0.488600,1.000000,1.000000,0.523700,0.523700,0.523800,0.523900,0.524600,0.524700,1.000000,1.000000,1.000000,1.000000,1.000000,1.000000,0.476000,0.476200,0.477800,1.000000,1.000000,1.000000,0.490200
1.000000,1.000000,1.000000,1.000000,1.000000,1.000000,1.000000,1.000000,0.558800,0.558500,0.558400,0.558400,0.558300,0.558200,0.557600,0.557500,0.557400,0.557400,1.000000,0.558600,1.000000,0.558600,1.000000,1.000000,1.000000,1.000000,1.000000,1.000000,1.000000,1.000000,0.552600,0.554000,0.554300,0.555400,0.555300,0.554900,1.000000,1.000000,1.000000,1.000000,1.000000,1.000000,1.000000,1.000000,1.000000,1.000000,1.000000,1.000000,1.000000,1.000000,1.000000,1.000000,1.000000,1.000000,0.181000,0.181000,0.180900,0.180800,0.180700,0.180700,1.000000,0.180000,0.179800,0.179600,0.179600,0.179500,0.179500,0.179500,0.179500,0.179500,0.179600,0.180200,0.180200,0.180100,0.179900,0.179900,0.179800,0.179900,0.179900,0.179400,0.179400,0.179300,0.179300,0.179300,0.179200,0.179200,0.179200,0.179100,0.179000,0.178900,0.178700,0.178600,0.178400,0.178200,0.178100,0.178000,0.177900,0.177900,0.177200,0.177100,0.177100,0.177100,0.177200,0.177200,0.177200,0.177200,0.177200,0.177200,0.177100,0.177000,0.176900,0.176900,0.176500,0.176200,0.176100,0.176100,0.175900,0.175800,0.175800,0.175600,0.175600,0.175500,0.175400,0.175400,0.175400,0.175300,0.175200,0.175200,0.174900,0.174800,0.174700,0.174500,0.174400,0.174300,0.174200,0.174100,0.174000,0.174000,0.174000,0.174000,0.174000,0.173900,0.173800,0.173700,0.173600,0.173600,0.173400,0.173200,0.173100,0.172900,0.172900,0.172800,0.172800,0.172700,0.172700,0.172600,0.172500,0.172400,0.172300,0.172300,1.000000,1.000000,1.000000,0.493900,0.493200,0.493000,0.492900,1.000000,1.000000,1.000000,1.000000,1.000000,1.000000,1.000000,1.000000,1.000000,0.497900,0.498000,0.500600,0.500000,0.499900,1.000000,0.499600,1.000000,0.494800,0.493300,0.489600,0.489000,0.489000,0.490000,0.491200,0.490300,0.490100,0.487500,1.000000,1.000000,1.000000,1.000000,1.000000,1.000000,1.000000,1.000000,1.000000,1.000000,1.000000,1.000000,1.000000,1.000000,1.000000,1.000000,1.000000,1.000000,0.491800,1.000000,1.000000,1.000000,1.000000,1.000000,1.000000,1.000000,1.000000,1.000000,1.000000,0.492600,0.492500,0.492100,0.491000,0.489900,0.489900,0.489900,0.489800,0.488900,0.488700,0.488700,0.488600,0.489500,1.000000,0.523700,1.000000,0.522300,1.000000,1.000000,1.000000,1.000000,1.000000,1.000000,1.000000,1.000000,1.000000,0.476400,0.477700,0.477800,1.000000,1.000000,1.000000,1.000000
1.000000,1.000000,1.000000,1.000000,1.000000,1.000000,0.561600,1.000000,0.558900,0.558300,0.558300,0.558300,0.558100,0.558000,0.557600,0.557600,0.557500,0.558500,1.000000,0.558600,1.000000,1.000000,1.000000,1.000000,1.000000,1.000000,1.000000,1.000000,1.000000,0.552200,0.552500,0.553900,0.555400,0.555400,1.000000,0.555200,0.554500,1.000000,1.000000,1.000000,1.000000,1.000000,1.000000,1.000000,1.000000,1.000000,1.000000,1.000000,1.000000,1.000000,1.000000,1.000000,1.000000,0.180800,0.180800,0.180900,0.180800,0.180800,0.180600,0.180500,0.180400,0.179900,0.179800,0.179700,0.179600,0.179600,0.179500,0.179500,0.179500,0.179500,0.179500,0.179700,0.180100,0.180000,0.179800,0.179500,0.179800,0.179800,0.179500,0.179300,0.179300,0.179200,0.179200,0.179200,0.179100,0.179100,0.179100,0.179100,0.179000,0.178900,0.178700,0.178600,0.178300,0.178100,0.178000,0.177900,0.177800,0.177500,0.177100,0.177000,0.177000,0.177000,0.177100,0.177100,0.177100,0.177000,0.177000,0.177000,0.177000,0.176900,0.176800,0.176800,0.176200,0.176100,0.176100,0.176000,0.175900,0.175800,0.175800,0.175600,0.175600,0.175500,0.175500,0.175400,0.175400,0.175300,0.175200,0.175100,0.174900,0.174800,0.174700,0.174500,0.174400,0.174300,0.174200,0.174100,0.174000,0.174000,0.174000,0.174000,0.173900,0.173900,0.173700,0.173700,0.173600,0.173400,0.173400,0.173200,0.173100,0.172900,0.172900,0.172900,0.172800,0.172800,0.172700,0.172700,0.172500,0.172400,0.172300,0.172300,1.000000,1.000000,1.000000,0.494000,0.494000,0.493100,1.000000,1.000000,1.000000,1.000000,1.000000,1.000000,1.000000,1.000000,1.000000,1.000000,0.498100,0.498100,0.502000,0.500000,1.000000,1.000000,0.499700,1.000000,0.494800,0.493400,0.489000,0.489000,0.489000,0.489300,0.490200,0.490000,0.488400,0.487400,0.487400,1.000000,1.000000,1.000000,1.000000,1.000000,1.000000,1.000000,1.000000,1.000000,1.000000,1.000000,1.000000,1.000000,1.000000,1.000000,1.000000,1.000000,0.491800,1.000000,1.000000,1.000000,1.000000,1.000000,1.000000,1.000000,1.000000,1.000000,1.000000,0.492700,0.492700,0.492400,0.491800,0.490000,0.490000,0.490000,0.490100,0.490800,0.489300,0.489500,0.489500,0.491500,1.000000,1.000000,1.000000,1.000000,1.000000,1.000000,1.000000,1.000000,1.000000,1.000000,1.000000,1.000000,1.000000,1.000000,0.477700,0.477700,0.477800,0.477800,1.000000,1.000000
1.000000,1.000000,1.000000,1.000000,1.000000,0.560000,1.000000,1.000000,0.558800,0.558300,0.558200,0.558200,0.558000,0.557900,0.557600,0.557500,0.557500,0.557600,1.000000,0.559100,0.559200,1.000000,1.000000,1.000000,1.000000,1.000000,1.000000,1.000000,1.000000,0.552100,0.552600,0.553800,0.555500,0.555500,1.000000,1.000000,1.000000,1.000000,1.000000,1.000000,1.000000,1.000000,1.000000,1.000000,1.000000,1.000000,1.000000,1.000000,1.000000,1.000000,1.000000,1.000000,0.180500,0.180500,0.180500,0.180500,0.180400,0.180500,0.180400,0.180300,0.180200,0.179900,0.179800,0.179700,0.179700,0.179700,0.179600,0.179500,0.179400,0.179300,0.179300,0.179100,0.179000,0.178900,0.178700,0.178700,0.178700,0.178700,0.178800,0.179100,0.179200,0.179100,0.179000,0.178900,0.178600,0.178600,0.178600,0.179000,0.179000,0.178200,0.177900,0.177800,0.177800,0.177900,0.177900,0.177600,0.177500,0.177200,0.177100,0.177000,0.177000,0.177000,0.177000,0.177000,0.177000,0.176900,0.176900,0.176900,0.176800,0.176800,0.176200,0.176100,0.176000,0.176000,0.176000,0.176000,0.175900,0.175800,0.175800,0.175700,0.175600,0.175600,0.175500,0.175500,0.175400,0.175300,0.175100,0.175000,0.174800,0.174700,0.174700,0.174500,0.174400,0.174300,0.174300,0.174100,0.174100,0.174000,0.174000,0.174000,0.173900,0.173800,0.173700,0.173600,0.173500,0.173400,0.173300,0.173200,0.173100,0.173000,0.172900,0.172900,0.172900,0.172900,0.172800,0.172700,0.172600,0.172400,0.172300,1.000000,0.172300,1.000000,1.000000,0.493900,0.493200,0.493100,0.493100,0.493200,1.000000,1.000000,1.000000,1.000000,1.000000,1.000000,1.000000,1.000000,1.000000,0.502000,0.502000,0.500500,0.499900,0.499900,0.499900,0.499900,0.497200,0.493500,0.489000,0.489000,0.489000,0.489000,0.489700,0.488400,0.487500,0.487400,0.487400,1.000000,1.000000,1.000000,1.000000,1.000000,1.000000,1.000000,1.000000,1.000000,1.000000,1.000000,1.000000,1.000000,1.000000,1.000000,1.000000,1.000000,1.000000,1.000000,1.000000,1.000000,1.000000,1.000000,1.000000,0.488200,1.000000,0.487800,0.488900,0.491400,0.492700,0.492700,0.492100,0.491700,0.490100,0.490100,0.490800,0.490900,0.491000,0.491100,0.491600,1.000000,1.000000,1.000000,1.000000,1.000000,1.000000,1.000000,1.000000,1.000000,1.000000,1.000000,1.000000,1.000000,1.000000,0.477600,0.477600,0.477600,0.477400,0.477600,1.000000,1.000000
